107.6921 107.7118 107.9288 108.1315 108.3923 108.9539 109.4136 109.4452 109.4452 109.1433 108.9521 108.5369 108.2374 107.8189 107.6198 107.3042 107.1524 107.1506 107.1506 107.1524 107.3029 107.2898 107.2408 107.2408 107.1641 107.0976 106.9656 106.7823 106.6096 106.2551 105.968 105.3507 104.9504 104.7886 104.7886 105.0811 105.3642 105.6374 105.8238 105.9614 106.0887 106.1925 106.203 106.1925 106.1216 106.0121 105.6816 105.3548 105.1487 105.023 104.9057 104.8319 104.6672 104.4444 104.244 103.8126 103.4984 103.1494 103.0671 103.0671 103.0671 103.1494 103.3888 103.5919 103.8513 104.0614 104.2043 104.6427 104.6427 104.4658 104.5588 104.4658 104.2061 104.1276 104.1062 103.9638 103.9103 103.8198 103.7854 103.7644 103.7309 103.8198 103.8718 103.9146 103.9631 104.0082 104.0082 103.9788 103.9422 103.8854 103.8335 103.7778 103.7622 103.7086 103.5989 103.5958 103.5958 103.5958 103.7853 103.9589 104.2175 104.3099 104.4282 104.4862 104.5702 104.6554 104.6554 104.6554 104.6554 104.6063 104.3527 104.3058 104.2428 104.199 104.1684 104.1535 104.1473 104.1358 104.1535 104.166 104.1299 104.1415 104.1699 104.2086 104.2504 104.2609 104.368 104.5399 104.6844 104.6807 104.6453 104.6078 104.6078 104.6315 104.6315 104.644 104.9615 105.2601 105.5986 105.9892 106.4193 106.4682 106.4682 106.4682 106.1535 106.0554 106.0252 105.9017 105.8211 105.8467 106.0191 106.315 106.694 107.0577 107.0064 106.97 106.9228 106.7409 106.6472 106.5652 106.4426 106.3662 106.3451 106.4426 106.6367 106.7988 107.0361 107.3449 107.516 107.5946 107.6584 107.9363 108.4065 108.9927 109.3997 109.3857 109.3288 109.258 109.1685 109.0601 108.6617 108.5465 108.3221 108.3221 108.5779 108.8085 108.8968 108.9555 109.0743 109.2203 109.2574 109.4741 109.7692 110.2081 110.8497 111.0612 111.8577 112.4747 112.9876 113.4855 113.6552 113.8168 113.9976 114.5431 114.9057 115.1765 115.8364 116.7294 117.7121 118.4395 118.9789 119.7643 121.011 122.3136 123.62 124.9563 126.2059 127.0041 128.0542 130.0866 132.186 133.47 134.5327 135.6923 137.2654 138.8322 140.6503 142.3239 143.7872 145.6219 147.5102 149.3554 151.0787 152.6955 154.4522 156.0026 158.139 160.3835 161.8306 162.3301 162.8402 163.0946 163.9176 163.948 163.9828 164.4222 164.6132 164.9384 165.1129 165.2312 165.2312 165.1129 165.1129 165.2312 165.6054 165.8963 166.5681 167.6209 169.0437 170.3058 172.5423 174.2531 175.9385 177.4521 179.3918 181.6064 183.1217 183.9697 184.6557 185.3424 185.8513 185.9363 185.9493 185.9146 185.7223 185.3898 185.0934 184.409 183.0605 181.4623 178.5461 177.5575 174.3894 173.0236 171.5111 170.2533 169.4455 168.6625 168.1912 168.0136 167.8073 167.6926 167.6167 167.3986 167.3849 167.3687 167.264 167.1157 166.4576 165.2264 163.4402 162.0105 159.1726 157.3401 155.5662 154.313 153.9643 153.9112 153.8139 153.7275 153.6988 153.6946 153.6862 153.3496 153.0383 152.5527 151.8024 151.1654 150.4989 149.6657 148.8637 147.9686 147.5773 147.0347 146.8169 146.6073 146.4236 146.2326 145.8353 145.4137 144.892 144.5465 144.1822 143.9384 143.6982
107.7371 108.0047 108.1713 108.7448 109.3931 109.7873 110.0774 110.1469 110.1469 110.0197 109.1242 108.5659 108.2374 107.7011 107.4493 107.1524 107.0333 106.9461 106.9367 106.8957 106.8957 106.872 106.7541 106.7541 106.7541 106.7541 106.6839 106.4194 106.3341 106.1559 105.968 105.1552 104.9504 104.7886 104.7886 105.0702 105.2835 105.5808 105.9031 106.1925 106.2488 106.3156 106.3501 106.203 106.1216 105.7858 105.5469 105.3507 105.1331 105.0404 104.913 104.8542 104.8266 104.4444 104.1561 103.9235 103.5099 103.1563 103.0799 103.0799 103.0799 103.2618 103.4925 103.5935 103.9941 104.2043 104.6842 104.8904 105.1042 104.9503 104.8819 104.74 104.5588 104.2119 104.1104 104.0034 103.9638 103.9103 103.8718 103.8198 103.8504 103.9146 103.9855 104.0082 103.9631 103.9471 103.9146 103.8832 103.87 103.8048 103.7778 103.7629 103.7572 103.7154 103.6841 103.6736 103.6736 103.6841 103.7853 103.8321 104.0527 104.2466 104.3834 104.4647 104.5461 104.6013 104.6413 104.6413 104.6413 104.5989 104.3527 104.3103 104.2682 104.2197 104.199 104.1965 104.199 104.2306 104.3121 104.3752 104.2626 104.1717 104.2553 104.2563 104.2563 104.2619 104.3705 104.5399 104.6288 104.644 104.6078 104.5876 104.6001 104.6315 104.644 104.6807 104.9497 105.1627 105.5986 106.027 106.5033 106.665 106.665 106.665 106.4163 106.0548 105.9673 105.8131 105.7872 105.7803 105.7928 105.7942 106.4172 106.694 106.7621 106.7621 106.7409 106.6472 106.5652 106.4496 106.3662 106.2227 106.0527 106.1171 106.4426 106.6596 107.0361 107.4947 107.6188 107.804 108.0467 108.3734 108.9517 109.6441 109.8168 109.8652 109.6451 109.3857 109.2344 109.0525 108.5798 108.3221 107.9351 107.8878 107.9071 108.1814 108.4569 108.7775 108.8968 109.0743 109.2203 109.2574 109.5413 109.7799 110.2081 110.8497 111.3805 111.9876 112.5743 113.1564 113.5682 113.8012 113.9622 114.4199 114.9057 115.1504 115.4824 116.4258 117.4583 118.1918 118.7978 119.5063 120.5845 121.792 123.0759 124.4022 125.7358 126.6497 127.593 129.4972 131.632 133.1237 134.2402 135.066 136.5024 138.3078 140.3273 142.0366 143.5517 145.0974 146.9742 148.9746 150.9035 152.6458 154.6778 156.2209 158.5217 160.8394 161.8431 161.9488 162.7061 162.9179 162.9832 163.0946 163.7731 163.948 163.968 163.9803 164.2442 164.4222 164.6409 164.9549 164.9705 165.0358 165.1129 165.6054 166.1445 167.099 168.1691 169.4047 170.8503 172.8019 174.7176 176.3507 178.8892 180.5891 182.2655 183.3924 183.9697 184.5285 185.0934 185.3907 185.7223 185.4708 185.1283 184.4839 183.5167 181.7438 179.7237 177.9584 176.7071 174.3894 173.1059 171.5206 170.4744 169.7284 169.0233 168.5026 168.3248 168.0136 167.8073 167.6786 167.5164 167.3087 167.2141 167.1157 166.4842 165.8418 164.6828 163.4402 162.0482 160.3937 158.1475 155.586 154.7603 154.1003 153.9426 153.9233 153.8557 153.7099 153.6926 153.6862 153.5756 153.2407 152.853 152.374 151.5826 150.7507 149.976 149.1942 148.3286 147.6757 147.4351 146.9937 146.674 146.4578 146.3962 146.1617 145.6331 145.2203 144.8669 144.4037 144.1113 143.8408 143.5372
108.0047 108.1713 108.8305 109.4452 110.0197 110.6438 110.9823 111.1505 111.1505 110.8218 110.266 109.1242 108.3018 107.6814 107.3042 107.1019 106.9461 106.8957 106.7829 106.708 106.6721 106.5316 106.2527 106.1176 106.3341 106.392 106.392 106.3496 106.2581 106.2341 106.061 105.36 105.0702 104.9504 104.9504 105.2092 105.5808 105.8847 106.2143 106.4369 106.7162 106.7904 106.7162 106.6741 106.2488 106.1216 105.6816 105.3545 105.19 105.1054 105.023 104.9057 104.8585 104.7594 104.3969 104.0703 103.8657 103.4984 103.2618 103.1974 103.2618 103.4517 103.5511 103.9941 104.6566 105.1042 105.3846 105.4425 105.3699 105.1872 105.0332 104.8872 104.6978 104.4658 104.2119 104.1325 104.1062 104.0715 103.968 103.9315 104.0715 104.0715 104.0701 104.0685 103.9471 103.9129 103.851 103.7954 103.7711 103.7645 103.7629 103.7596 103.7492 103.7027 103.6767 103.6767 103.6841 103.7038 103.8034 103.8317 103.9464 104.0527 104.2182 104.3099 104.4632 104.5099 104.5989 104.5989 104.5989 104.4632 104.3529 104.3183 104.294 104.271 104.271 104.2867 104.31 104.383 104.5475 104.5475 104.3932 104.3251 104.3251 104.3251 104.2743 104.2743 104.3705 104.5278 104.6165 104.6288 104.6078 104.5981 104.6188 104.6315 104.6807 104.7123 104.8694 105.0715 105.4379 106.027 106.7183 106.7474 106.7474 106.7474 106.4713 106.1202 105.9511 105.7942 105.758 105.7191 105.6836 105.7191 105.777 106.4278 106.6288 106.6409 106.6409 106.5464 106.4496 106.3662 106.2227 106.0497 105.9942 105.9942 106.3173 106.4707 106.9961 107.516 107.6584 107.9363 108.2713 108.926 109.5058 109.7979 109.8987 109.8881 109.8168 109.6517 109.3997 108.9287 108.5605 108.1814 107.8878 107.7963 107.8084 107.8383 108.0859 108.3334 108.5521 108.8267 108.9968 109.2113 109.3407 109.5804 109.9143 110.3446 110.9325 111.6886 112.1824 112.6892 113.163 113.768 113.9185 114.4199 114.9057 115.1504 115.4824 116.1459 117.2763 118.0976 118.7276 119.3291 120.14 121.4732 122.8129 124.0286 125.3308 126.4601 127.4345 128.8357 130.903 132.7988 134.0384 135.066 136.4714 138.0739 140.1264 141.7695 143.1655 144.6833 146.4996 148.4759 150.1412 152.3766 154.258 156.559 158.6626 160.544 161.1642 161.8431 162.3301 162.702 162.7507 162.7507 162.827 162.9119 163.0618 163.0946 163.7368 163.8532 164.1052 164.4409 164.6375 164.9549 165.0358 165.3344 165.7242 166.638 168.1626 169.1732 170.0695 172.0968 174.0899 175.9582 177.551 180.0372 181.7235 183.0158 183.3924 183.758 184.3073 184.5285 185.0934 184.4839 183.0605 181.9735 179.9975 178.5461 177.5316 176.7071 175.2993 173.7613 171.9288 171.0679 170.0596 169.4768 168.8603 168.5026 168.3284 168.0469 167.8073 167.6786 167.4604 167.2141 167.0194 166.3004 165.3484 163.9621 163.1507 161.7439 160.3937 158.5848 156.7502 155.2839 154.602 154.0985 153.9437 153.9233 153.8557 153.7099 153.6862 153.6011 153.5201 153.0383 152.6264 151.8024 150.9316 150.1112 149.5563 148.9875 148.0451 147.5842 147.2255 146.9302 146.6417 146.4578 146.3703 145.9927 145.448 144.9482 144.5894 144.2576 143.981 143.6541 143.4503
108.3923 108.9539 109.4985 110.1469 110.9823 111.6576 111.9979 112.188 111.958 111.6576 110.9823 110.1318 109.0468 107.8835 107.2368 107.0333 106.9038 106.7829 106.5921 106.5316 106.4374 106.0421 105.9369 105.9493 106.108 106.2551 106.2581 106.3341 106.3341 106.2581 106.2341 105.9159 105.36 105.2276 105.3507 105.6374 105.9159 106.2143 106.7162 107.1301 107.3089 107.3089 107.2751 106.9363 106.6952 106.3329 106.164 105.6925 105.3548 105.2797 105.1487 105.0404 104.9715 104.8963 104.8319 104.4285 104.0703 103.8657 103.5511 103.4401 103.5099 103.7194 104.1465 104.6796 105.3846 105.6167 105.7071 105.6167 105.5304 105.3846 105.1872 104.9904 104.8679 104.677 104.3856 104.2305 104.1764 104.1325 104.1276 104.0946 104.1543 104.0946 104.0849 104.0685 103.926 103.851 103.7953 103.7647 103.7622 103.7596 103.7572 103.7492 103.7086 103.6736 103.6571 103.6736 103.6841 103.731 103.8143 103.8837 103.9464 103.9779 104.0527 104.1703 104.2891 104.4632 104.5079 104.5079 104.5057 104.4351 104.3724 104.3527 104.3183 104.3103 104.3121 104.3438 104.4658 104.6372 104.6572 104.6572 104.6375 104.4658 104.3916 104.383 104.3632 104.3382 104.4161 104.5627 104.6288 104.6844 104.644 104.6222 104.6288 104.644 104.7072 104.7161 104.8449 105.0663 105.3864 106.027 106.73 106.8662 106.8662 106.8662 106.6212 106.1616 106.0191 105.7942 105.6818 105.6329 105.5548 105.5438 105.5548 106.0396 106.4531 106.5464 106.5076 106.4496 106.3095 106.2227 106.0497 105.9132 105.8739 105.8739 105.929 106.4112 106.6596 107.516 107.7213 108.0445 108.4065 108.9927 109.6441 109.7979 109.8987 109.8881 109.8168 109.6713 109.5671 109.2254 108.6281 108.0919 107.8878 107.7963 107.8084 107.8383 108.0859 108.2398 108.4596 108.5779 108.8007 108.9968 109.2203 109.4741 109.6457 109.9835 110.7646 111.2725 111.8848 112.3082 112.8253 113.5065 113.9185 114.4199 114.9057 115.1504 115.4824 115.9044 116.777 117.6173 118.4395 118.9789 119.7643 120.897 122.101 123.4226 124.9563 126.2059 127.2519 128.4957 130.1968 132.2757 133.9971 135.066 136.4714 137.9142 139.7905 141.463 142.8336 144.4324 146.2674 147.933 149.4652 151.2271 153.6225 156.1875 158.5217 159.8897 160.8517 161.5423 161.8306 161.8431 161.8863 161.8863 161.7974 161.7974 162.2663 162.3114 162.4786 163.0618 163.7368 163.968 164.389 164.6008 164.9549 165.0484 165.5182 166.5547 168.0455 169.0081 169.4212 170.8503 172.5894 174.7678 177.446 179.5326 180.6989 181.7235 183.0158 183.1217 183.3924 183.2555 182.6811 181.9735 179.9975 179.2941 177.6344 177.1501 176.7333 176.1847 174.6177 173.1059 171.7175 170.5858 169.9546 169.1875 168.7921 168.568 168.3757 168.1286 167.919 167.7273 167.5444 167.0778 166.4842 165.5325 164.2397 163.1507 162.0482 160.6451 159.1726 157.0904 155.586 155.2418 154.5948 154.0985 153.9437 153.8631 153.7669 153.6946 153.6454 153.558 153.141 152.7381 152.2209 151.487 150.4189 149.6948 149.137 148.431 147.8322 147.5433 147.0347 146.9302 146.6596 146.437 146.1878 145.7313 145.307 144.7197 144.4037 143.981 143.6541 143.4503 143.4039
109.4796 110.0774 111.0972 111.8253 112.2886 112.7481 112.7713 112.7481 112.6208 112.0172 111.6793 110.6531 109.3558 108.3018 107.4493 107.0333 106.7976 106.5419 106.4811 106.2326 105.9517 105.823 105.823 105.8283 105.9493 106.1176 106.2527 106.3341 106.3496 106.4124 106.4124 106.2341 105.9684 105.8238 105.9159 106.0473 106.3501 106.8643 107.3089 107.8913 107.955 108.0413 107.955 107.7087 107.1243 106.8746 106.4803 106.1944 105.7577 105.4105 105.3272 105.2658 105.1487 105.1331 105.0493 104.8266 104.4103 104.2477 103.9941 103.8657 104.0075 104.4518 104.9473 105.5092 105.8286 105.8735 105.8286 105.7752 105.6835 105.5241 105.3183 105.1217 104.9059 104.6978 104.4454 104.3779 104.2305 104.1822 104.1764 104.1818 104.1818 104.168 104.0939 104.0248 103.8832 103.7954 103.7647 103.7596 103.7512 103.7512 103.7492 103.7357 103.6767 103.6571 103.6466 103.6571 103.6841 103.7853 103.8247 103.8886 103.9464 103.9779 104.0527 104.1703 104.2738 104.3789 104.5057 104.5079 104.5079 104.4761 104.4351 104.3724 104.3527 104.3523 104.3538 104.4658 104.5785 104.6969 104.7458 104.7595 104.7092 104.6317 104.5611 104.5611 104.4161 104.3931 104.5615 104.6063 104.7434 104.7439 104.7161 104.6288 104.6315 104.644 104.7123 104.7306 104.8449 105.0663 105.3864 106.1058 107.015 107.015 107.015 106.8662 106.6604 106.1835 105.9517 105.7928 105.6329 105.5438 105.4212 105.4212 105.4693 105.6887 106.1071 106.4172 106.3779 106.2984 106.1945 106.0527 105.9974 105.8458 105.7875 105.78 105.7922 106.0141 106.4551 107.1801 107.7213 107.9363 108.4065 109.0821 109.5295 109.7457 109.8437 109.8652 109.7714 109.6517 109.4775 109.2254 108.6493 108.3056 108.0919 107.8383 107.8362 108.0176 108.0919 108.2398 108.4596 108.5521 108.6971 108.8589 109.1646 109.3698 109.6221 109.9657 110.4904 110.9325 111.4762 111.9139 112.5542 113.1259 113.7893 114.3727 114.9281 115.2143 115.5101 115.9044 116.6005 117.4583 118.2475 118.9789 119.7904 120.8953 121.9996 123.292 124.5543 125.8374 127.2519 128.4957 130.0866 131.7474 133.979 135.066 136.4714 137.9012 139.3743 140.9469 142.4265 144.172 146.0622 147.0043 148.4759 150.1412 152.5195 155.2298 157.878 159.203 160.065 160.8394 161.1629 161.5021 161.5021 161.5021 161.39 161.1726 161.1612 161.1726 161.5309 162.2663 162.789 163.3335 163.9494 164.389 164.6375 165.0484 165.5112 166.4223 167.5647 168.7523 169.3437 170.3231 172.0968 173.8533 175.8153 177.7245 179.9618 180.6886 181.6064 181.7235 181.7235 180.6989 180.2186 179.2941 178.3706 177.5575 177.2848 176.8677 176.5465 175.5063 174.2534 173.0236 171.3891 170.2533 169.5105 169.0387 168.7921 168.6142 168.4343 168.3248 168.0028 167.8073 167.5444 167.0079 166.1939 164.8035 163.9621 162.0899 160.6703 159.6586 157.9538 156.0275 155.5662 155.1417 154.4234 154.0914 153.9426 153.8557 153.7654 153.679 153.5756 153.4076 152.905 152.3246 151.5597 150.6676 149.8759 149.3217 148.9875 148.3013 147.6607 147.1813 146.9937 146.6997 146.6176 146.3255 146.0947 145.448 144.892 144.5465 144.0969 143.6455 143.4354 143.4039 143.3
110.6799 111.2856 112.1989 112.8633 113.2009 113.2503 113.2323 113.1677 112.7713 112.489 111.9979 111.2834 109.9169 109.0468 107.7976 107.1279 106.8475 106.5327 106.2576 105.9407 105.7758 105.7709 105.7758 105.817 105.942 106.108 106.2551 106.3496 106.4186 106.4703 106.4703 106.4371 106.4194 106.4124 106.4369 106.5584 106.9094 107.4308 107.955 108.5412 108.5891 108.6989 108.7229 108.5412 108.0413 107.4231 106.9363 106.6355 106.2139 105.8779 105.4471 105.3655 105.3272 105.2825 105.2342 105.0248 104.8266 104.4518 104.4103 104.4518 104.9473 105.3043 105.6926 105.9923 106.0322 106.0302 105.9805 105.8335 105.7752 105.5914 105.3919 105.1275 104.9279 104.6806 104.3856 104.2807 104.2305 104.1915 104.1787 104.2108 104.2173 104.168 104.091 103.9262 103.788 103.7596 103.7492 103.7492 103.7357 103.7384 103.7457 103.7203 103.6786 103.6736 103.6736 103.6841 103.7203 103.8086 103.859 103.9464 103.9779 104.0004 104.0527 104.1703 104.2795 104.4632 104.5099 104.5103 104.5296 104.5103 104.5057 104.4351 104.3846 104.3846 104.503 104.5774 104.6562 104.7595 104.7622 104.7622 104.7595 104.6134 104.5611 104.6063 104.6063 104.6028 104.6063 104.7155 104.7763 104.8983 104.8377 104.7155 104.6342 104.7072 104.7161 104.7722 104.8449 105.0557 105.3864 106.2003 107.0652 107.0652 107.0652 107.015 106.6212 106.1616 105.9313 105.6818 105.5548 105.4483 105.4053 105.4128 105.456 105.5325 105.9015 106.1412 106.2221 106.1842 106.1306 106.0974 106.0141 105.8739 105.7875 105.7705 105.78 105.9913 106.4393 107.097 107.6584 107.9155 108.2873 108.8799 109.2162 109.6441 109.7229 109.7457 109.6517 109.5766 109.3826 109.1685 108.6281 108.3221 108.1539 108.0352 107.8449 108.0859 108.1408 108.3026 108.4794 108.5521 108.6971 108.8589 109.2149 109.479 109.7412 109.9319 110.3464 110.8643 111.4009 111.8848 112.1892 112.6892 113.5065 114.2214 114.963 115.2195 115.5919 115.9044 116.6005 117.4583 118.2475 118.9907 119.9192 120.8953 121.9996 123.2532 124.4483 125.7947 127.0638 128.4957 129.9526 131.7173 133.7822 135.0435 136.3451 137.8578 139.093 140.5234 142.0815 143.8392 145.5329 146.556 147.933 149.4652 151.2271 153.6225 155.8389 157.878 158.9833 159.7425 160.0733 160.3386 160.4388 160.1933 160.0999 160.0733 160.0733 160.1776 160.7032 161.2158 162.0087 162.4006 163.2901 164.0419 164.6002 165.0484 165.5112 166.4223 167.5647 168.6528 169.3089 169.9214 170.8503 172.407 174.1476 176.3507 178.9965 179.8066 179.9618 179.9618 179.8731 179.2941 178.8742 178.3446 177.7224 177.4868 177.1501 176.8145 176.5465 175.8849 174.2534 172.5448 171.3891 170.5278 169.5105 169.1875 168.8109 168.6785 168.5118 168.3493 168.1144 167.8843 167.6167 167.0079 166.2309 164.8072 163.9621 161.7439 160.3311 158.7021 156.7502 155.8117 155.4843 155.1417 154.3298 154.0914 153.9326 153.8553 153.6824 153.5756 153.4544 153.089 152.5714 151.5826 150.7507 150.1112 149.6657 149.1837 148.7258 148.2573 147.5433 147.104 146.9302 146.6455 146.4504 146.1387 145.5359 144.9482 144.5581 144.0979 143.5372 143.4206 143.3626 143.263 143.2055
111.578 112.1989 112.8895 113.3821 113.53 113.4413 113.3964 113.3197 113.1677 112.7481 112.323 111.609 110.4561 109.1428 107.8787 107.2377 106.8957 106.5041 106.2006 105.8973 105.7542 105.7542 105.7758 105.823 105.9968 106.1384 106.4155 106.7344 107.048 107.1877 107.2845 107.1877 107.0748 107.0748 107.1301 107.2845 107.8913 108.4055 108.6058 108.9374 108.9816 109.1273 109.1273 109.1273 108.9816 108.0873 107.6157 107.0148 106.6741 106.2785 105.9338 105.8779 105.8667 105.7714 105.7384 105.5064 105.2342 105.2342 105.2342 105.3606 105.5337 105.826 106.0668 106.2355 106.2355 106.1048 106.0341 105.9923 105.8139 105.6065 105.3183 105.0332 104.7434 104.5195 104.3195 104.2404 104.2173 104.1787 104.1695 104.1787 104.1695 104.1306 104.0248 103.8424 103.7682 103.7596 103.7563 103.7512 103.7384 103.7563 103.7583 103.7457 103.7187 103.6841 103.7203 103.7457 103.8034 103.8734 103.9468 104.0061 104.0544 104.0548 104.1148 104.271 104.2917 104.5057 104.5296 104.5502 104.5702 104.5774 104.5774 104.5206 104.5103 104.5774 104.599 104.6665 104.7063 104.7622 104.7622 104.7609 104.6317 104.5038 104.4147 104.5573 104.6063 104.6317 104.6317 104.7587 104.7763 104.9007 104.8527 104.7161 104.6342 104.6342 104.7072 104.7306 104.8391 104.9981 105.6277 106.4682 107.0626 107.0626 107.0626 106.9647 106.5376 106.0303 105.8073 105.623 105.4675 105.4128 105.3459 105.4128 105.4595 105.5325 105.7489 106.095 106.168 106.168 106.168 106.1412 106.0974 105.9974 105.929 105.7922 105.7922 106.0141 106.4185 107.0753 107.6188 107.913 108.2333 108.4779 108.8835 109.2162 109.5295 109.5671 109.5295 109.3826 109.2254 108.9448 108.3888 108.3056 108.1608 108.1539 108.1408 108.1408 108.1988 108.3943 108.5521 108.6597 108.8007 108.9823 109.3232 109.6419 109.8786 110.1346 110.3464 110.8498 111.2725 111.6997 112.1824 112.6888 113.1564 114.1294 114.9434 115.2579 115.5919 115.9044 116.5919 117.4583 118.4537 119.3685 120.0881 120.9234 121.9996 123.2532 124.42 125.664 126.7703 128.25 129.694 131.5762 133.7621 134.9553 136.2415 137.7739 139.007 140.4417 142.0604 143.6942 145.0752 146.1624 147.0121 148.088 149.68 151.6459 154.2775 156.1313 157.3358 158.5217 158.7233 158.9833 158.9833 158.9833 158.9504 158.8567 159.2452 159.3508 160.1703 160.2419 161.2158 161.7352 162.6827 163.8532 164.4491 165.0164 165.4576 166.4223 167.5647 168.6186 169.176 169.5445 170.3231 171.3066 172.8713 174.7678 177.1758 178.6232 178.8742 178.8742 178.8117 178.6232 178.1962 177.878 177.599 177.3968 177.0835 176.8145 176.566 176.0469 174.8842 173.2012 171.7175 171.0172 170.1418 169.5066 169.1875 168.7925 168.591 168.4948 168.3248 167.9776 167.3757 166.8532 166.3591 164.9695 164.1247 160.6703 159.4692 157.2836 156.5072 155.8117 155.4843 155.1176 154.3298 154.0149 153.8848 153.7654 153.6264 153.4674 153.2654 152.6911 151.6707 150.8398 150.326 149.8489 149.4636 149.137 148.7219 148.1903 147.4351 147.0317 146.8104 146.5706 146.3255 145.9687 145.086 144.5581 144.0979 143.408 143.3558 143.317 143.2451 143.1824 143.0929
112.0228 112.8633 113.3821 113.7244 113.7782 113.7776 113.5033 113.3964 113.2379 112.9256 112.323 111.6793 110.6531 109.4525 107.8859 107.2377 106.7868 106.3962 106.0924 105.9407 105.812 105.812 105.8283 105.942 106.1384 106.7059 107.048 107.6576 107.9895 108.0381 108.4484 108.4055 108.0381 107.9363 107.9363 108.4055 108.6058 108.9374 109.1273 109.2893 109.4995 109.539 109.5668 109.5668 109.4995 109.1311 108.2954 107.7087 107.039 106.8403 106.6758 106.4835 106.4835 106.4835 106.3141 105.9338 105.7529 105.7384 105.7384 105.826 105.8944 106.0386 106.2355 106.3702 106.3273 106.261 106.1048 106.0302 105.8139 105.5304 105.2036 104.9279 104.696 104.3856 104.2708 104.2244 104.1764 104.1695 104.149 104.149 104.1306 104.08 103.9262 103.8287 103.7931 103.7924 103.7725 103.7682 103.7596 103.7725 103.788 103.7572 103.7357 103.7357 103.7457 103.8262 103.9468 104.0544 104.1223 104.2347 104.251 104.2633 104.271 104.2917 104.5003 104.5759 104.5899 104.5899 104.5932 104.5774 104.5932 104.5932 104.5932 104.636 104.6969 104.7458 104.7714 104.7714 104.7458 104.6665 104.5893 104.3939 104.3845 104.3939 104.5 104.5038 104.5631 104.5875 104.7587 104.8944 104.8527 104.7306 104.6342 104.6289 104.7008 104.7306 104.8391 104.9719 105.646 106.2683 106.73 106.8662 106.8662 106.6855 106.4163 105.9517 105.6329 105.5548 105.449 105.4077 105.3459 105.4128 105.4675 105.5975 105.7489 106.095 106.1412 106.1945 106.2221 106.2471 106.2221 106.051 105.9974 105.9474 105.8739 106.0141 106.2813 106.4551 107.408 107.8564 108.1089 108.4429 108.538 108.8799 109.1311 109.1944 109.1944 109.1944 109.0436 108.6281 108.3056 108.1814 108.1608 108.1814 108.1929 108.1988 108.337 108.5488 108.713 108.8007 108.8954 109.1524 109.53 109.83 110.0862 110.2297 110.5121 110.8498 111.1705 111.6886 112.0243 112.6892 113.3182 114.1294 114.9347 115.2195 115.5394 115.9044 116.5232 117.3733 118.4537 119.3735 120.322 121.2776 122.2232 123.2817 124.4022 125.5682 126.7703 128.25 129.5315 131.1125 132.6381 134.3928 135.9447 137.3158 138.7115 140.3543 141.9633 143.4449 144.4742 145.622 146.556 147.3089 148.6774 150.2025 152.5195 154.2775 155.8389 156.8083 157.3358 157.6167 157.7001 157.8785 158.3151 158.5715 158.7746 159.2384 159.3508 160.1671 160.5383 161.4914 162.1458 162.789 163.9208 164.5752 165.247 166.1445 167.3848 168.3761 168.998 169.3089 169.6016 170.4015 171.791 173.2948 174.9233 176.7674 177.5678 177.7245 177.6344 177.6344 177.6207 177.5975 177.3968 177.2227 177.0133 176.785 176.566 176.0946 175.082 173.6942 172.4934 171.4929 171.0172 170.2094 169.5066 169.1875 168.7224 168.5489 168.4006 167.7319 167.0479 166.724 166.3004 165.5325 164.5159 161.7133 159.2014 157.1435 156.5072 155.8191 155.4843 155.1176 154.3298 153.9932 153.8553 153.6264 153.43 153.3902 152.8648 151.8794 150.9732 150.5077 150.1112 149.6948 149.2942 149.0825 148.7079 148.1903 147.4351 147.0554 146.8104 146.5706 146.196 145.5458 144.6525 144.0979 143.3869 143.2875 143.2258 143.1478 143.0493 143.042 142.822
112.2297 113.0512 113.719 113.8158 113.9761 113.9761 113.8744 113.4634 113.3818 113.0547 112.0172 111.6793 110.8877 109.4557 107.8859 107.334 106.9258 106.5327 106.2576 106.055 105.9968 105.942 105.9968 106.3344 107.048 107.6576 108.4816 108.7819 108.9628 109.1171 109.1171 109.1171 109.0611 109.0082 109.0082 109.0611 109.4858 109.852 109.889 110.024 110.1011 110.3337 110.3337 110.2825 109.9755 109.7726 109.1311 108.3538 107.7087 107.1027 107.0183 107.0075 106.8403 106.7909 106.4835 106.3179 106.0668 105.9163 105.895 105.9163 105.9688 106.0795 106.2984 106.3737 106.3376 106.3035 106.2555 106.0738 105.8139 105.4914 105.1103 104.8682 104.5821 104.286 104.2305 104.1764 104.149 104.134 104.1306 104.1031 104.091 103.979 103.858 103.8274 103.7972 103.7972 103.7946 103.8088 103.8287 103.8443 103.8445 103.821 103.8105 103.8262 103.8734 104.0033 104.1148 104.2472 104.2633 104.3564 104.4147 104.4875 104.5303 104.5731 104.5759 104.5899 104.5899 104.5731 104.5448 104.5296 104.5774 104.599 104.636 104.6969 104.7511 104.7668 104.7714 104.7656 104.6969 104.639 104.503 104.3845 104.3105 104.3509 104.3916 104.3931 104.3939 104.4147 104.6222 104.8122 104.8377 104.7562 104.6868 104.6342 104.7123 104.7572 104.8417 104.9919 105.3611 106.1024 106.5376 106.6604 106.6604 106.5376 106.0649 105.7555 105.5951 105.4942 105.4608 105.4483 105.4128 105.456 105.4942 105.6683 105.9015 106.1071 106.1945 106.2471 106.2984 106.3687 106.4451 106.2221 106.0262 105.9913 105.9474 106.0141 106.051 106.3965 107.1833 107.8058 108.1062 108.2814 108.4488 108.538 108.6297 108.7061 108.6483 108.5929 108.3888 108.3056 107.9295 108.0352 108.1408 108.1929 108.2186 108.3919 108.5488 108.7573 108.9455 108.9887 109.12 109.3562 109.7 109.9115 110.2092 110.4577 110.7192 110.8708 111.2593 111.5378 112.1824 112.7615 113.4138 114.1335 114.963 115.3566 115.6471 115.8744 116.4414 117.3073 118.4537 119.6302 120.518 121.593 122.4209 123.292 124.42 125.4005 126.7703 128.1342 129.3235 130.3013 131.6314 133.7621 135.4959 136.9949 137.944 139.3751 140.5234 142.0815 143.6942 145.0752 146.0622 146.6176 147.9383 149.4513 150.8417 152.8915 154.2775 155.4586 156.1313 156.8083 157.0776 157.2933 157.4685 157.9652 158.4985 158.7746 159.2384 159.4389 160.1935 161.1086 161.6613 162.2009 163.1739 164.0249 164.5752 165.6506 166.753 167.6638 168.6186 168.998 169.3089 169.6356 170.4813 172.1075 173.3976 174.7678 176.1463 176.9514 177.1758 177.2332 177.2332 177.1752 177.0835 176.975 176.8145 176.6856 176.3828 176.0469 174.9971 173.7613 172.5448 171.9347 171.4929 171.0172 170.0905 169.3784 169.0882 168.6692 168.4948 167.6758 166.8532 166.6439 165.9921 164.9728 164.5573 162.0569 159.4692 157.2836 156.5611 155.9229 155.6262 155.1417 154.2403 153.8553 153.5051 153.4162 153.284 153.2093 152.6111 151.6707 150.8894 150.4465 149.8801 149.5338 149.2942 149.0825 148.7219 148.1903 147.6001 147.0554 146.8104 146.6176 145.9687 145.1114 144.1158 143.3921 143.2258 143.0199 142.7216 142.6756 142.4987 142.4439 142.2676
112.2926 113.1269 113.7782 113.9761 114.1132 114.1132 114.0686 113.7244 113.4406 112.5559 111.8152 111.5595 110.8877 109.6475 108.2687 107.6336 107.1256 106.7528 106.3962 106.2576 106.2006 106.3962 106.9347 107.3161 108.4214 108.9628 109.3229 109.5176 109.633 109.664 109.7678 109.8749 109.889 109.9369 110.0147 110.2704 110.7956 110.8494 110.8977 111.0395 111.0395 111.0395 110.9142 110.7797 110.3337 109.9755 109.7425 109.0622 108.0873 107.5569 107.1166 107.0676 107.0401 106.9409 106.6223 106.365 106.0668 105.9324 105.9163 105.9324 105.9743 106.0966 106.3051 106.381 106.3737 106.3273 106.2981 106.1824 105.7752 105.3919 105.0243 104.7117 104.4589 104.2404 104.222 104.1607 104.1294 104.1176 104.1092 104.0947 104.0153 103.8656 103.8463 103.8287 103.8287 103.841 103.841 103.8803 103.9421 103.9421 103.9421 103.9553 103.9421 103.9421 103.9949 104.058 104.251 104.3564 104.5003 104.5759 104.6249 104.6272 104.6272 104.6584 104.6584 104.6584 104.6274 104.6192 104.5932 104.5743 104.5932 104.636 104.6742 104.7499 104.7668 104.7721 104.7721 104.7656 104.6969 104.6103 104.5 104.3105 104.2751 104.2751 104.3009 104.3105 104.3105 104.3105 104.3931 104.7434 104.8122 104.7562 104.6868 104.6342 104.7562 104.8377 104.8621 105.0381 105.2188 105.7758 106.1024 106.5254 106.5254 106.0649 105.9337 105.6483 105.5674 105.5578 105.4942 105.4675 105.456 105.4942 105.6315 105.7489 105.9274 106.1412 106.2471 106.4689 106.5721 106.5899 106.6895 106.5721 106.1499 106.0262 105.9913 106.0141 106.0333 106.1499 106.7639 107.6433 108.0066 108.1607 108.3094 108.4429 108.4751 108.4488 108.4429 108.3412 107.9985 107.7625 107.4903 107.4903 107.8449 108.1608 108.3056 108.5207 108.7201 108.9455 109.0249 109.2149 109.3232 109.6221 109.8786 110.1355 110.4577 110.6946 110.8602 111.1705 111.3136 111.6981 112.2626 112.855 113.7893 114.4997 115.1339 115.5394 115.8337 116.2033 116.9265 117.6177 118.5101 119.6816 120.7519 121.6907 122.6071 123.3195 124.42 125.2889 126.4383 127.7472 128.868 129.9909 131.1125 132.6381 134.3928 135.9447 137.3158 138.5245 140.0416 141.455 142.7921 143.9358 145.3389 146.2299 147.0121 148.088 149.6521 151.4023 152.8915 154.0887 155.0602 155.578 156.1313 156.5634 156.9089 157.4446 157.8785 158.4985 158.7746 159.2384 160.0007 160.9462 161.5105 162.0087 162.2648 162.8114 163.9208 164.4846 165.6764 166.7636 167.6638 168.3315 168.9541 169.3524 170.1336 170.8327 172.1335 173.6116 174.2152 175.1402 176.1463 176.7674 176.7683 176.8677 176.8677 176.7741 176.6856 176.3846 176.0946 175.5678 174.789 173.662 172.4934 171.9347 171.571 171.3891 170.8515 169.9823 169.297 168.7925 168.5118 167.5816 166.8076 166.3667 165.8884 164.9569 164.5159 162.4476 159.4738 157.7812 156.7211 156.035 155.735 155.1176 154.1275 153.6264 153.4162 153.2726 153.089 152.835 152.2357 151.5597 150.8894 150.4465 150.0793 149.8106 149.3217 149.1606 148.7594 148.3013 147.6001 147.0554 146.8104 146.1297 145.1797 144.5392 143.677 143.1341 142.7216 142.4936 142.2195 142.1219 142.0863 141.6879 141.6879
112.358 113.0512 113.7247 114.1132 114.1775 114.1775 114.089 113.9036 113.3818 112.4684 111.7497 111.4477 110.6531 109.6475 108.4078 107.7176 107.4679 107.1256 106.7528 106.7976 107.1008 107.3161 108.1582 108.9628 109.5176 110.0012 110.4673 110.5055 110.6018 110.7334 110.7334 110.7334 110.7578 110.7956 110.8977 111.0907 111.4751 111.7311 111.5367 111.5008 111.4634 111.4276 111.3001 111.0395 110.6939 110.2257 109.8954 109.0938 108.2697 107.7276 107.2661 107.1166 107.0676 107.0075 106.6758 106.365 106.0668 105.9367 105.9324 105.9324 105.9367 106.0386 106.2984 106.4003 106.3792 106.3273 106.2981 106.1303 105.616 105.2111 104.9214 104.5821 104.3195 104.2364 104.1994 104.134 104.1031 104.1031 104.0947 104.0711 103.9874 103.8656 103.8541 103.8424 103.8463 103.8498 103.8668 103.9165 103.9421 103.9421 103.9421 103.9656 103.9656 103.981 104.0279 104.2164 104.3337 104.4414 104.5303 104.6425 104.7185 104.7306 104.7271 104.7271 104.7271 104.7117 104.6892 104.6584 104.6192 104.599 104.6274 104.6617 104.7423 104.7731 104.7731 104.7997 104.7997 104.7714 104.6525 104.5038 104.4494 104.3105 104.2751 104.248 104.2751 104.2751 104.2751 104.248 104.1535 104.1535 104.3883 104.5315 104.5407 104.5842 104.7562 104.8417 104.9109 104.9919 105.1792 105.2652 105.646 105.933 105.933 105.9176 105.7328 105.5993 105.5632 105.5632 105.5975 105.5993 105.6032 105.6594 105.7406 105.8484 105.9701 106.2221 106.4775 106.704 106.9132 107.2305 107.2582 106.9258 106.6895 106.431 106.051 106.0333 106.051 106.1499 106.3034 107.3315 107.8058 108.0859 108.1607 108.2469 108.3197 108.3197 108.0986 107.78 107.5884 107.4877 107.4848 107.4848 107.4895 107.8582 108.3056 108.5488 108.8522 108.9823 109.1524 109.2727 109.4883 109.8732 110.0862 110.3333 110.6946 110.9427 111.139 111.2593 111.4794 111.8014 112.5135 113.1075 113.8928 114.9347 115.2115 115.6471 115.908 116.7811 117.0121 117.884 118.6479 119.6816 120.7519 121.6907 122.6071 123.5614 124.42 125.2423 126.1777 127.3646 128.6746 129.6753 130.3013 131.6314 133.3334 135.1793 136.5581 137.5455 138.7115 140.3543 141.9592 143.4449 144.4742 145.622 146.556 147.3584 148.7424 150.0582 151.4023 152.7029 153.3797 154.5038 155.3054 156.069 156.5272 156.8805 157.2933 157.8911 158.4985 158.9865 159.633 160.2789 161.4057 161.6949 162.0087 162.2648 162.6827 163.665 164.7366 165.6764 166.753 167.5738 168.0076 168.8509 169.5445 170.3166 171.7542 172.8713 173.7494 174.4006 174.9545 175.7082 176.1463 176.3666 176.6632 176.6632 176.3004 176.1723 175.7761 175.1478 174.2534 173.0154 172.2056 171.7617 171.5335 171.1973 170.8809 170.3363 169.5712 169.1862 168.5489 167.5474 166.724 166.3591 165.8237 164.8198 163.5075 162.2462 159.4866 157.8289 157.1435 156.2216 155.8394 155.1176 153.6913 153.4609 153.284 153.1192 152.8648 152.6606 152.162 151.5597 150.9684 150.5077 150.2486 149.848 149.5058 149.2602 148.929 148.4669 147.6001 147.0554 146.5016 145.792 144.8371 144.1035 143.2875 142.6756 142.2934 142.1219 141.6717 141.4767 141.1568 141.3419 141.3983
112.358 112.9766 113.3199 113.9185 114.089 114.089 114.0686 113.7918 113.3733 112.3886 111.7427 111.267 110.3818 109.4565 108.4549 107.8381 107.6685 107.4705 107.334 107.4416 107.693 108.2794 108.9728 109.8585 110.3978 110.7933 111.1611 111.358 111.4221 111.5273 111.5027 111.4751 111.5273 111.7664 111.7664 112.0261 112.0335 111.9697 111.8346 111.6199 111.5162 111.5008 111.4276 111.1271 110.7797 110.2257 109.7331 109.0542 108.1385 107.6157 107.2661 107.1027 107.062 106.9409 106.5003 106.2628 105.9367 105.895 105.8782 105.8782 105.8782 105.895 106.1303 106.3702 106.3051 106.2984 106.1966 106.0296 105.6065 105.0724 104.8119 104.4589 104.2394 104.2158 104.1607 104.1294 104.0947 104.0947 104.08 104.0732 104.0137 103.876 103.8584 103.8498 103.858 103.858 103.8668 103.9165 103.9421 103.9421 103.9421 103.9656 103.981 104.023 104.058 104.2074 104.3337 104.4414 104.5303 104.6425 104.7306 104.7637 104.8139 104.8194 104.8145 104.7855 104.7602 104.6892 104.6146 104.6105 104.6146 104.663 104.7511 104.8023 104.8023 104.8217 104.8695 104.7731 104.6803 104.5368 104.453 104.3509 104.2751 104.248 104.2751 104.2751 104.2751 104.248 104.1535 104.1535 104.2842 104.3704 104.5096 104.5785 104.7008 104.8122 104.9109 104.9853 105.0802 105.1134 105.1415 105.3175 105.5578 105.5817 105.5817 105.5674 105.5632 105.5975 105.6242 105.7328 105.7489 105.7886 105.8501 105.9274 106.1412 106.4689 106.704 106.9648 107.3615 107.4901 107.5652 107.4196 107.1375 106.7642 106.431 106.1582 106.1582 106.1582 106.2813 107.1833 107.408 107.7092 108.0859 108.1424 108.0986 107.9295 107.6699 107.49 107.442 107.3655 107.3655 107.3884 107.3988 107.649 108.009 108.5205 108.9185 108.9887 109.2325 109.3562 109.7412 109.9963 110.3333 110.7192 110.9378 111.1326 111.2593 111.3364 111.6202 111.9144 112.8321 113.3182 114.1558 115.01 115.4229 115.8337 116.6341 116.9927 117.6002 118.1628 118.7091 119.3636 120.6369 121.6907 122.6071 123.5614 124.3606 125.1329 125.6327 126.7545 128.1342 129.1875 129.9526 130.9259 132.3748 134.1583 135.8096 136.6452 137.9298 139.3161 140.4675 142.0229 143.5347 144.8503 146.1624 147.0121 148.1237 149.2327 150.239 151.4023 152.7029 153.3797 154.2775 155.2078 156.0439 156.5272 156.8805 157.2933 157.8911 158.5715 159.3508 160.1935 161.0902 161.4824 161.6949 161.8698 162.0709 162.39 163.2901 164.7489 165.9822 166.7636 167.5849 168.3315 168.8674 169.6016 170.4587 171.8207 173.1777 174.0954 174.7301 175.2445 175.9259 176.3004 176.3666 176.3004 176.1723 175.9667 175.5678 174.9178 173.704 172.5154 171.9347 171.571 171.4929 171.1477 170.8515 170.3363 169.5712 169.2804 168.5027 166.9761 166.6823 166.0349 164.9569 163.7764 162.688 161.8762 159.4866 157.8289 157.4778 156.8354 155.97 155.1176 153.6913 153.43 153.2726 152.9849 152.7798 152.5698 151.9901 151.5129 150.9967 150.7709 150.4304 150.0793 149.546 149.3091 149.0825 148.5482 147.6001 146.8104 145.9925 145.1114 144.2976 143.677 142.8138 142.3743 142.0863 141.5645 141.2164 140.9842 140.9842 141.0299 141.1568
112.358 112.8381 113.0777 113.4918 113.9036 113.9036 113.7918 113.4634 113.1513 112.3506 111.609 110.9506 109.8126 109.011 108.2687 107.8859 107.7826 107.693 107.6837 107.7176 107.9093 108.7251 109.4463 110.0197 110.7167 110.9023 111.358 111.5027 111.5514 111.772 111.8241 111.9434 112.2288 112.6553 112.3431 112.2677 112.231 112.1657 111.9643 111.7817 111.5227 111.5008 111.4276 111.1271 110.6745 109.9649 109.0872 108.4755 108.0784 107.5569 107.2836 107.0983 107.0075 106.7574 106.3179 105.9688 105.7941 105.7513 105.7355 105.7145 105.6846 105.6846 105.8782 106.1675 106.2118 106.1966 106.1387 105.9832 105.6065 105.0537 104.7117 104.3195 104.2364 104.2158 104.1607 104.1294 104.0948 104.1031 104.0948 104.0791 104.0304 103.8932 103.8645 103.8584 103.8584 103.858 103.8584 103.8668 103.9283 103.9283 103.9122 103.9283 103.9656 103.9949 104.0279 104.1435 104.3251 104.4414 104.5303 104.6425 104.753 104.787 104.85 104.8887 104.8887 104.8139 104.7847 104.6623 104.607 104.5743 104.599 104.6105 104.6742 104.7731 104.7731 104.8152 104.8695 104.8217 104.7498 104.5819 104.5025 104.453 104.3884 104.2751 104.2751 104.2751 104.2751 104.248 104.1535 104.1535 104.2842 104.3704 104.5096 104.5626 104.688 104.7562 104.8417 104.9719 104.9877 104.9919 104.9414 105.0628 105.2976 105.4589 105.5352 105.5632 105.5674 105.6242 105.7406 105.8325 105.8501 105.8984 105.9701 106.168 106.279 106.5945 106.9094 107.2305 107.3664 107.4901 107.5652 107.4196 107.2582 107.0748 106.7642 106.2385 106.2099 106.2099 106.2813 106.9483 107.2505 107.3875 107.6499 107.8887 107.7625 107.6347 107.4877 107.4121 107.3566 107.2865 107.3237 107.3605 107.3884 107.7045 108.0403 108.337 108.8142 108.9887 109.2325 109.4202 109.924 110.2845 110.7192 111.0898 111.139 111.2593 111.3364 111.4992 111.6981 112.1812 112.9194 113.7749 114.4997 115.1909 115.6471 116.0014 116.7044 117.0448 117.6995 118.3778 118.723 119.2613 120.3037 121.6855 122.6071 123.5614 124.3606 125.0404 125.5205 126.6451 127.926 128.8048 129.4002 130.2823 131.3424 132.9671 134.6886 136.1072 136.9239 137.944 139.3751 141.0123 142.5266 143.824 144.8528 146.2299 147.3496 148.3955 149.5283 150.6337 151.7203 152.7029 153.3797 154.2374 155.2078 156.0439 156.4972 156.8805 157.2933 157.9949 158.9562 159.633 160.3525 160.9511 161.4057 161.5798 161.734 161.803 162.0709 163.665 164.8032 166.3379 167.0468 167.7166 168.6662 169.1921 170.2859 171.1604 172.6311 173.7494 174.4223 174.9545 175.8204 176.2163 176.3004 176.2163 175.9667 175.743 175.4139 174.5465 173.3981 172.3712 171.7617 171.5335 171.4189 171.0426 170.7566 170.3324 169.4836 168.9614 168.4142 166.8972 166.1091 164.9728 164.2479 162.8762 162.2462 161.7306 159.5229 158.007 157.5954 157.2836 156.1989 155.1176 153.7834 153.4609 153.1986 152.8985 152.7226 152.3581 151.8794 151.4786 150.9771 150.7325 150.4715 150.2162 149.8189 149.4817 149.1606 148.5482 147.4617 146.5409 145.792 144.8371 144.2511 143.3921 142.6195 142.2195 141.827 141.4287 141.2164 140.9842 140.9842 141.0299 141.154
112.358 112.8381 113.0372 113.1696 113.3306 113.4725 113.4634 113.2614 112.5559 111.7497 111.1967 110.1254 109.4565 108.591 108.2355 108.1079 107.9093 107.8859 107.8785 107.9222 108.4064 108.9728 109.5947 110.3027 110.7933 111.1779 111.4074 111.5331 111.772 111.8433 111.9434 112.2296 112.6867 112.8354 112.897 112.6357 112.4164 112.2445 112.0335 111.7311 111.5008 111.3277 111.1271 110.6939 109.7726 109.3474 109.0542 108.5344 108.1385 107.7276 107.36 107.0325 106.8407 106.365 106.0753 105.8404 105.7355 105.5563 105.5099 105.4423 105.2282 105.2282 105.6168 105.9174 106.0157 105.9871 105.9832 105.9174 105.4914 105.051 104.5821 104.2441 104.222 104.2158 104.1994 104.1693 104.1607 104.1728 104.1607 104.0948 104.0385 103.8936 103.8656 103.8615 103.8645 103.8584 103.8584 103.8584 103.9122 103.9122 103.8682 103.8682 103.9097 103.9283 103.9656 104.058 104.206 104.3337 104.4705 104.6131 104.7637 104.8438 104.8887 104.9153 104.9078 104.8299 104.7855 104.6272 104.5743 104.5545 104.5657 104.607 104.6707 104.7731 104.7731 104.8152 104.8695 104.8695 104.7714 104.6525 104.6197 104.6197 104.6197 104.5025 104.3884 104.2842 104.28 104.248 104.1535 104.1535 104.2842 104.3714 104.4808 104.568 104.6462 104.6994 104.7572 104.8417 104.81 104.7572 104.7253 104.7873 105.1134 105.2976 105.4608 105.5674 105.6594 105.7555 105.8484 105.9075 105.9865 106.0792 106.1761 106.1926 106.3497 106.5945 106.9132 107.2305 107.3664 107.4901 107.5652 107.4196 107.2582 107.0748 106.7709 106.431 106.3034 106.3034 106.36 106.6507 107.1704 107.2134 107.3198 107.4877 107.4877 107.4639 107.3237 107.2865 107.2366 107.2366 107.3126 107.3605 107.3988 107.7407 108.0403 108.2465 108.6154 108.9881 109.2325 109.4202 109.924 110.6526 111.1637 111.3364 111.3364 111.4548 111.5378 111.6981 111.703 112.1812 113.1075 114.0937 114.9671 115.6471 116.0627 116.4519 116.8272 117.3035 117.7358 118.5101 118.7927 118.9809 119.8065 121.1692 122.455 123.5614 124.3606 124.9625 125.4005 126.3803 127.3646 128.487 129.1122 129.6847 130.5278 131.7938 133.5155 135.3182 136.4123 137.0049 137.9298 139.3161 140.4675 142.2923 143.824 145.1121 146.2622 147.7569 148.7424 149.5735 150.7006 151.7778 152.7029 153.3797 154.2374 155.2078 156.0609 156.4972 156.8805 157.5378 158.1068 159.009 160.0007 160.3525 160.8734 161.0902 161.4057 161.3148 161.734 161.9784 163.783 165.0615 166.7225 167.5105 168.0537 168.9713 170.133 170.8327 172.2152 173.7405 174.3798 174.9374 175.7247 176.1428 176.1723 175.9667 175.743 175.5416 174.9285 173.8149 172.7105 171.9112 171.5694 171.4517 171.1973 170.7566 170.3324 169.5324 169.198 168.7428 168.4142 166.6189 165.7048 164.6826 163.4857 162.3877 162.0743 161.4519 159.5273 158.3714 157.8289 157.5002 156.6096 155.1295 153.7834 153.4162 153.0848 152.835 152.5698 152.162 151.6361 151.1385 150.951 150.6793 150.4304 150.2162 149.821 149.5058 149.214 148.5482 147.4199 146.2555 145.5002 144.7816 144.2511 143.677 142.9022 142.2934 141.827 141.4287 141.2164 140.9842 140.9842 141.0299 141.1392
112.4736 112.8381 113.0372 113.1513 113.2275 113.2614 113.1513 112.705 112.0693 111.2494 110.3818 109.4957 108.8174 108.4616 108.2355 108.135 108.1255 108.1293 108.1536 108.2304 108.4452 108.8542 109.5947 110.3027 110.839 111.358 111.4766 111.7152 111.8241 111.9189 112.2296 112.6553 112.8373 112.9628 112.9587 112.8373 112.6135 112.2677 111.9643 111.5162 111.2563 110.829 110.2224 109.7331 109.6266 109.3003 109.0872 108.6547 108.3426 107.7518 107.2661 106.9926 106.5003 106.2437 105.8733 105.7593 105.5519 105.4788 105.4 105.2282 105.1907 105.1907 105.1907 105.6359 105.779 105.779 105.7782 105.7166 105.4433 104.949 104.4576 104.2364 104.221 104.2015 104.2015 104.1994 104.185 104.1915 104.1693 104.1031 104.0187 103.9382 103.8656 103.8615 103.8645 103.8584 103.8584 103.8584 103.9097 103.8668 103.815 103.808 103.808 103.7832 103.8271 103.9553 104.1077 104.2074 104.3337 104.4414 104.5738 104.787 104.8691 104.9153 104.916 104.8887 104.8299 104.6892 104.6105 104.607 104.6105 104.6175 104.6742 104.7499 104.7656 104.8152 104.8695 104.871 104.7731 104.7364 104.7498 104.871 104.9845 104.8981 104.7414 104.7043 104.6848 104.6262 104.439 104.3704 104.4489 104.4808 104.5301 104.5704 104.6462 104.6582 104.6994 104.7409 104.7151 104.7115 104.6582 104.6582 104.9763 105.2188 105.5352 105.6242 105.7555 105.8669 105.9168 105.9865 106.0793 106.1858 106.1926 106.2065 106.2776 106.3816 106.7398 106.9648 107.2728 107.374 107.5572 107.3339 107.1284 106.9307 106.6907 106.458 106.3798 106.4269 106.458 106.6507 107.0202 107.1704 107.1886 107.2089 107.2134 107.2134 107.2134 107.1886 107.1619 107.2284 107.2865 107.3655 107.4848 107.8582 108.0567 108.2465 108.6154 108.9473 109.1661 109.4202 109.924 110.78 111.4634 111.5041 111.6202 111.7009 111.8014 111.857 111.8588 112.2246 113.4933 114.4289 115.6236 116.0357 116.2579 116.6341 116.9375 117.5565 118.0871 118.556 118.8174 118.9603 119.5035 120.7519 121.9888 123.044 124.064 124.7956 125.2978 125.9893 126.985 128.0469 129.0164 129.3586 130.0018 130.995 132.9872 134.5388 135.8096 136.5525 137.0049 137.8901 138.8537 140.4675 142.2923 143.9007 145.8471 147.118 148.1237 149.0769 150.0582 150.9963 151.9825 152.7029 153.4019 154.4924 155.4958 156.1185 156.5914 157.1882 157.8911 158.5174 159.2261 160.1789 160.3278 160.7061 160.8734 160.8985 161.4102 161.803 162.995 164.7366 165.8584 167.0468 167.7366 168.8509 169.9553 170.8103 172.1075 173.6116 174.3798 174.9891 175.9259 176.185 176.185 175.8204 175.5678 175.2387 174.2615 173.0516 172.1562 171.7617 171.4517 171.109 170.6363 170.316 169.7514 169.3018 169.198 168.7428 168.4142 166.6189 164.8326 163.7764 162.688 162.2462 162.0369 161.3126 159.5273 158.5649 157.8553 157.5778 156.8354 155.1295 153.7834 153.2254 152.8985 152.7226 152.3581 151.7913 151.3811 150.9967 150.7752 150.6301 150.356 150.0813 149.8106 149.5372 148.9969 148.3559 147.3405 146.1362 145.171 144.7816 144.2818 143.7232 143.1341 142.5606 141.992 141.557 141.326 141.0064 141.0064 141.1176 141.154
112.6404 112.8381 112.9766 113.1168 113.1513 113.1269 112.7881 112.3886 111.2495 110.515 109.6553 108.9155 108.4796 108.4078 108.2119 108.1536 108.1582 108.2119 108.2852 108.4064 108.52 108.8201 109.4463 110.0197 110.7167 111.2583 111.5196 111.7661 111.8545 112.2074 112.4709 112.7862 112.933 113.0654 113.0654 112.9021 112.6357 112.1979 111.5227 111.0825 110.5735 110.2201 109.702 109.6761 109.5022 109.3474 109.1977 108.6985 108.3497 107.7518 107.2661 106.9884 106.3262 105.8733 105.7941 105.7513 105.5563 105.4927 105.4 105.2109 105.091 105.091 105.091 105.1955 105.6207 105.6637 105.6274 105.616 105.085 104.6922 104.2413 104.2158 104.2113 104.2 104.2015 104.2015 104.2113 104.2113 104.1693 104.0732 103.9885 103.876 103.8645 103.8584 103.8645 103.8584 103.8584 103.8584 103.9097 103.8517 103.7933 103.7832 103.7832 103.7453 103.7458 103.8271 103.9638 104.1435 104.2501 104.3597 104.4705 104.5738 104.8139 104.8691 104.9153 104.8887 104.8573 104.8145 104.6674 104.6554 104.6554 104.663 104.7109 104.7499 104.7499 104.8174 104.8652 104.871 104.8695 104.8174 104.8942 105.081 105.265 105.174 105.0846 105.081 104.9845 104.94 104.7278 104.6093 104.5626 104.5626 104.5785 104.6295 104.7278 104.6981 104.6981 104.6981 104.619 104.5963 104.5963 104.5963 104.7253 105.0628 105.427 105.6242 105.8255 105.8991 105.9865 106.0793 106.1132 106.1858 106.1897 106.1897 106.1926 106.2712 106.4366 106.7685 106.9501 107.1314 107.1638 107.1244 106.9501 106.7685 106.5172 106.458 106.3965 106.458 106.4741 106.6382 106.7992 107.0202 107.0341 107.1456 107.1573 107.1573 107.0736 106.9316 106.9982 107.1631 107.2865 107.3655 107.5498 107.8802 108.0705 108.3379 108.6154 108.9473 109.1661 109.4908 109.924 110.78 111.6439 111.703 111.7573 111.9101 111.94 112.0238 112.0639 112.8354 113.9827 114.8247 115.8441 116.2005 116.4981 116.8017 117.3035 117.6995 118.1628 118.556 118.8105 118.9139 119.3059 120.3696 121.6855 122.7677 123.654 124.5916 125.1329 125.6795 126.7545 127.926 128.6503 129.1875 129.6847 130.3318 131.8573 133.3218 134.7284 135.8352 136.5525 137.0049 137.5455 138.8537 140.4769 142.656 144.2887 145.9511 147.3459 148.2097 149.2421 150.4888 151.3238 152.2546 152.7718 153.8135 154.8771 155.709 156.3247 156.862 157.3306 157.9949 158.8939 159.6075 160.1789 160.3525 160.6114 160.8326 161.3148 161.803 162.995 164.4902 165.8584 166.7701 167.7366 168.8313 169.7043 170.4587 171.9482 173.7405 174.4223 175.815 176.185 176.4037 176.4037 176.1723 175.5635 174.9374 173.7068 172.7105 171.9112 171.5258 171.1973 170.6363 170.3324 170.2063 169.6759 169.2988 169.1201 168.7428 168.4142 166.6189 164.2479 162.8762 162.3877 162.2262 162.0067 161.2331 159.5229 158.5649 157.8553 157.5119 156.6554 155.1295 153.7834 153.0848 152.8105 152.446 152.023 151.5129 150.9967 150.6793 150.6395 150.3907 150.1807 149.9694 149.7484 149.2668 148.6859 148.0627 147.2402 146.1362 145.2031 144.8165 144.3515 143.8792 143.3035 142.9022 142.3498 141.8678 141.5269 141.326 141.1684 141.1684 141.2305
112.6404 112.7459 112.8381 112.9236 112.9236 112.7881 112.5907 111.6458 110.5351 109.6813 108.8443 108.4616 108.3446 108.2355 108.2119 108.2119 108.2576 108.4078 108.4379 108.4452 108.5703 108.7444 109.0866 109.6175 110.3978 110.9747 111.4274 111.64 111.8539 112.0995 112.4451 112.7794 112.933 112.9628 112.9481 112.8373 112.0944 111.5009 110.6224 110.2224 109.9354 109.702 109.6266 109.5246 109.5246 109.5022 109.3585 109.3003 108.6359 108.0641 107.3909 106.9894 106.4768 106.1216 105.8293 105.7533 105.5965 105.5099 105.4157 105.2282 105.0039 104.9764 104.9764 105.0211 105.1314 105.2976 105.2976 105.1826 105.0211 104.467 104.2414 104.221 104.2113 104.1661 104.1661 104.1728 104.1728 104.1728 104.0948 104.0304 103.9832 103.8936 103.8722 103.8609 103.8668 103.8609 103.8668 103.8668 103.9097 103.8668 103.808 103.7933 103.7933 103.7453 103.7458 103.812 103.8871 103.981 104.1736 104.21 104.3306 104.4414 104.5591 104.808 104.8724 104.8683 104.8573 104.8551 104.6889 104.6674 104.6666 104.6666 104.6934 104.7193 104.7217 104.8152 104.8585 104.8713 104.8849 104.8713 105.081 105.311 105.3278 105.3849 105.3659 105.265 105.2489 105.1591 105.0846 104.9098 104.7203 104.6848 104.6848 104.7203 104.7704 104.7409 104.6994 104.688 104.568 104.5425 104.5425 104.5425 104.625 105.004 105.452 105.5884 105.7889 105.902 106.067 106.0951 106.1132 106.1761 106.1761 106.1585 106.1178 106.1897 106.2712 106.4467 106.7007 106.7816 106.8826 106.8826 106.7685 106.5949 106.4625 106.4269 106.4017 106.4625 106.4823 106.5434 106.6507 106.7992 106.9467 106.9802 106.9802 106.9205 106.8414 106.831 106.8863 106.9205 107.2605 107.3988 107.649 107.9776 108.1899 108.4567 108.6207 108.9815 109.2679 109.559 110.1161 110.7504 111.6439 111.7515 111.8563 112.0238 112.0647 112.1204 112.2074 113.0769 114.1096 114.9248 115.8441 116.2089 116.4981 116.892 117.4207 117.6439 118.0871 118.556 118.7962 118.9093 119.2916 120.1199 121.1692 122.0371 123.016 124.0449 124.7956 125.5205 126.6451 127.6844 128.4107 129.0331 129.3586 129.8682 130.8215 132.172 133.9872 135.1793 135.8352 136.4123 137.0049 137.6367 138.9154 140.5256 142.6758 144.2887 146.0797 147.3496 148.5139 149.5735 150.6337 151.7778 152.5987 153.548 154.6424 155.4958 156.1259 156.5272 156.9415 157.5378 158.1587 159.1974 159.7136 160.2488 160.5393 160.7061 161.2619 162.684 163.5593 164.7489 165.9077 167.1134 167.8385 168.8313 169.59 170.3461 171.2736 173.0293 174.9467 176.1428 176.6809 176.721 176.721 176.4037 175.8204 174.9285 173.704 172.3803 171.8971 171.4987 170.6677 170.4391 170.2932 170.0715 169.5324 169.2804 169.0246 168.737 168.1254 165.9633 163.6665 162.4736 162.302 162.148 161.6764 160.9512 159.4882 158.5649 157.8553 157.4778 156.5755 155.0903 153.7834 153.2925 152.7798 152.2813 151.7343 150.9987 150.4217 150.1807 150.1807 150.1807 150.0182 149.7689 149.5436 148.8667 148.221 147.7615 147.2402 146.2519 145.5002 144.8409 144.4729 143.9908 143.5874 143.1537 142.5816 142.0815 141.6714 141.4072 141.3063 141.2305 141.1684
112.2113 112.6515 112.7064 112.7459 112.705 112.5907 111.6458 110.6546 109.7138 109.0403 108.4616 108.3105 108.2576 108.2355 108.2576 108.4379 108.4796 108.5703 108.5703 108.5703 108.742 108.8201 109.0071 109.327 109.7354 110.6969 111.1779 111.5196 111.7152 111.9015 112.1476 112.2645 112.6553 112.8352 112.7794 111.9015 111.1461 110.4129 109.8475 109.702 109.7007 109.6364 109.5673 109.6266 109.702 110.0771 110.087 109.6716 109.3474 108.3874 107.5477 107.0368 106.9422 106.415 106.075 105.791 105.7145 105.5303 105.4157 105.2384 104.9764 104.8345 104.8345 104.8345 105.0039 105.0887 105.0887 105.0211 104.734 104.467 104.3102 104.221 104.2015 104.1635 104.131 104.131 104.1018 104.0732 104.0187 103.9832 103.9382 103.8936 103.8925 103.8925 103.8936 103.9199 104.0061 104.0379 104.0415 104.0379 103.9322 103.815 103.808 103.7458 103.7537 103.7856 103.8256 103.8753 103.9784 104.1435 104.1945 104.3012 104.4129 104.524 104.787 104.8248 104.8248 104.7183 104.6707 104.6707 104.6707 104.6747 104.6911 104.7109 104.7193 104.7307 104.7781 104.8368 104.8713 104.8981 105.3099 105.3278 105.4996 105.6274 105.5269 105.4996 105.3909 105.3427 105.2518 105.1591 105.0381 104.8387 104.7331 104.7734 104.81 104.7845 104.7704 104.7331 104.6981 104.6981 104.625 104.625 104.833 105.2781 105.47 105.6434 105.8283 105.9444 106.0793 106.1438 106.1548 106.1761 106.1463 106.1028 106.0532 106.1088 106.1926 106.3816 106.4396 106.5046 106.5536 106.5608 106.5608 106.4415 106.4017 106.4017 106.4017 106.4625 106.4823 106.5172 106.6201 106.6893 106.732 106.7454 106.7361 106.6717 106.6541 106.6717 106.732 106.8461 106.9416 107.3237 107.7407 108.0567 108.2465 108.5569 108.7964 109.0678 109.3127 109.8331 110.2558 110.7018 111.3803 111.7515 111.9088 112.0238 112.0761 112.2074 112.6151 113.4933 114.1867 114.9248 115.8441 116.2089 116.4519 116.892 117.2939 117.5646 117.7984 118.4767 118.7927 118.9044 119.2867 119.9935 120.8499 121.5224 122.455 123.5521 124.3943 125.1493 125.9893 127.0446 127.9547 128.6553 129.041 129.3824 130.0824 131.2546 132.8752 133.9983 135.355 135.814 136.4123 137.0049 137.7445 139.0579 140.5256 142.6758 144.3519 146.1004 147.4606 148.7114 150.2105 151.3238 152.2462 152.7718 153.7112 154.7502 155.5857 156.1484 156.6187 157.1491 157.93 158.8836 159.4449 160.2488 160.5418 160.8985 161.9987 163.2955 164.2528 165.1606 166.3351 167.5105 168.031 168.8586 169.3976 170.133 171.1604 172.6311 174.4223 175.9259 176.6809 176.721 176.721 176.4037 175.5635 174.9285 173.6486 172.3779 171.8797 171.3137 170.6163 170.2063 170.0715 169.8114 169.4686 169.198 168.9614 168.7066 167.3301 164.6124 162.7584 162.3301 162.2047 162.0369 161.6065 160.6584 159.5229 158.6002 158.007 157.4154 156.1776 154.7566 153.9667 153.4627 152.8175 151.9163 151.1631 150.7832 150.2928 150.0321 150.0182 149.9492 149.7929 149.5639 149.0613 148.2948 147.9398 147.6543 147.2943 146.6791 145.7548 145.1352 144.5913 144.1115 143.7232 143.3035 142.9022 142.3498 141.887 141.5269 141.3643 141.2305 141.1537
111.3767 112.2113 112.3381 112.5907 112.0693 111.3673 110.6546 109.8634 109.0403 108.4525 108.3105 108.2333 108.2333 108.2355 108.3928 108.5703 108.8174 108.9754 108.8613 108.8512 108.8201 108.8542 109.0866 109.2734 109.4657 110.1126 110.7086 111.364 111.5196 111.7661 111.9015 112.0944 112.2074 112.2533 111.6388 110.6224 110.0015 109.6672 109.6296 109.6279 109.6279 109.6279 109.6266 109.702 110.4039 110.8212 110.9714 110.8679 110.0771 109.4468 108.3874 107.5406 107.0945 106.6585 106.3238 105.8431 105.7514 105.5519 105.4518 105.2415 105.0039 104.7877 104.7877 104.7877 104.8792 104.8973 104.9182 104.8792 104.734 104.5 104.3102 104.221 104.1661 104.1348 104.0808 104.0752 104.0465 104.0187 103.9832 103.9535 103.9382 103.9199 103.9199 103.9247 104.0085 104.0605 104.1589 104.3574 104.3238 104.2655 104.1445 103.9987 103.8256 103.7458 103.7458 103.7698 103.7856 103.812 103.847 103.943 104.0868 104.1933 104.2826 104.4574 104.5591 104.7136 104.7136 104.6889 104.6707 104.6747 104.6751 104.6911 104.6934 104.7193 104.7193 104.7193 104.7307 104.7781 104.8368 105.081 105.3248 105.6274 105.6802 105.7435 105.7435 105.6754 105.5617 105.5206 105.463 105.3909 105.3074 105.1524 104.9829 104.9425 104.9425 104.8794 104.833 104.7734 104.773 104.7734 104.81 104.8342 105.1377 105.4029 105.5884 105.7419 105.8669 106.0209 106.0932 106.1438 106.1548 106.1858 106.1463 106.1028 106.0532 106.1088 106.1897 106.2712 106.3706 106.4136 106.4366 106.4396 106.4396 106.3965 106.3706 106.4017 106.4269 106.4741 106.5048 106.5172 106.5495 106.6382 106.6507 106.6507 106.649 106.5937 106.5937 106.6541 106.6869 106.7464 106.9018 107.3072 107.8669 108.233 108.4567 108.7422 108.8479 109.12 109.5525 110.0607 110.2891 110.5319 111.1637 111.6192 111.7982 111.9215 112.0761 112.2088 112.7006 113.5424 114.1867 114.9248 115.8441 116.2005 116.4482 116.8272 117.1681 117.4038 117.6439 118.2659 118.5881 118.8766 119.2601 119.9078 120.6078 121.158 121.6855 122.6589 123.6035 124.6993 125.5483 126.6959 127.6844 128.0629 128.6814 129.1051 129.5642 130.3318 131.3388 132.8752 133.9983 134.9708 135.7988 136.3842 136.7114 137.7445 139.0579 140.5256 142.5075 144.3519 146.1004 147.8802 149.0769 150.2698 151.5846 152.2546 152.8046 153.8135 154.8771 155.6112 156.1838 156.6928 157.2188 158.1587 159.2417 160.1789 160.7061 161.2619 162.7109 163.5593 164.4902 165.5983 166.6933 167.5927 168.1589 169.1347 169.8278 170.3461 170.7955 171.7428 173.0293 174.9467 176.1428 176.1825 176.1825 175.5635 175.291 174.7074 173.6486 172.3779 171.8434 170.9579 170.3671 170.1957 170.164 170.0809 169.7803 169.4686 169.0246 168.5644 166.8947 163.9604 162.4857 162.3226 162.148 161.8718 161.6284 161.082 159.7504 158.6693 158.1203 157.3137 156.0854 154.6067 153.9667 153.4627 152.8175 151.7913 150.8766 150.356 150.02 149.9492 149.7929 149.7548 149.5784 149.0992 148.2948 148.0021 147.68 147.4199 147.2028 146.9679 145.963 145.2351 144.7816 144.3515 143.891 143.4592 143.1444 142.5816 142.0376 141.6714 141.3873 141.2305 141.1214
110.6908 111.3376 111.6471 111.3673 111.2494 110.4566 109.8634 109.0845 108.4616 108.2762 108.1452 108.1386 108.2119 108.2762 108.6036 108.9867 109.2811 109.2971 109.2971 109.296 109.0498 109.2163 109.2971 109.327 109.4568 109.7337 110.2288 110.7086 111.4074 111.5719 111.7152 111.819 111.819 111.1461 110.4917 109.9354 109.6364 109.5787 109.5673 109.573 109.5936 109.6279 109.6672 110.0771 110.5972 111.041 111.1126 111.041 110.8679 110.087 109.3003 107.8488 107.2865 107.0325 106.4768 106.1216 105.8293 105.6391 105.4788 105.3435 105.1646 105.0887 104.8804 104.8804 104.8804 104.8804 104.8792 104.8232 104.7118 104.5 104.3102 104.2018 104.1635 104.1018 104.0318 103.9885 103.9855 103.9832 103.9535 103.9535 103.9535 103.9535 103.9832 104.0187 104.1369 104.3011 104.4585 104.5142 104.4673 104.4388 104.3238 104.1594 103.9322 103.796 103.7537 103.7537 103.7698 103.7723 103.7765 103.7973 103.8745 104.0079 104.1868 104.2826 104.4574 104.5682 104.6666 104.6666 104.6666 104.6747 104.6889 104.7109 104.7193 104.732 104.732 104.732 104.7671 104.8174 104.8477 105.0436 105.3248 105.6802 105.7829 105.8701 105.9031 105.9264 105.8196 105.6802 105.6367 105.5357 105.5039 105.3784 105.2308 105.1578 105.11 105.0547 104.9425 104.8794 104.8342 104.8821 104.9763 105.1377 105.343 105.494 105.6453 105.8283 106.0209 106.0932 106.1438 106.1463 106.2083 106.2083 106.1548 106.1088 106.0532 106.1088 106.1625 106.2152 106.2837 106.3161 106.3514 106.3688 106.3506 106.3438 106.3506 106.3965 106.4269 106.4823 106.5166 106.5243 106.6201 106.6597 106.6838 106.6597 106.649 106.5937 106.5937 106.6541 106.6869 106.7464 106.9982 107.5051 108.0365 108.3189 108.6207 108.8082 109.0881 109.4012 109.8331 110.1161 110.2729 110.4956 110.9089 111.355 111.6439 111.9088 112.0647 112.2088 112.7034 113.5424 114.1096 114.6383 115.6239 116.1977 116.3348 116.892 117.1681 117.3963 117.6253 118.0082 118.5417 118.8766 119.2033 119.7195 120.2694 120.8499 121.2065 121.8158 122.7086 123.654 124.9457 126.1154 127.0446 127.8651 128.3869 128.6814 129.1692 129.6021 130.3494 131.3388 132.8076 133.8636 134.7284 135.5301 136.0103 136.5819 137.7016 139.0176 140.5256 142.5075 144.3519 146.1269 148.0838 149.2421 150.3395 151.5846 152.2546 152.8046 153.8135 154.8771 155.6112 156.2312 156.9415 157.7826 158.8939 160.0907 160.8326 162.0733 163.033 164.1387 164.7455 165.9077 166.9342 167.6989 168.5701 169.1372 169.8678 170.4921 170.7955 171.1798 171.8902 173.1555 174.9467 175.5453 175.4949 175.291 174.7723 174.0221 173.2405 172.1634 171.5751 170.6677 170.2063 170.164 170.164 170.1103 169.8114 169.7558 169.4418 168.5644 166.7056 163.6671 163.0328 162.465 162.2887 162.0743 161.6764 161.34 160.0974 159.0181 158.1691 156.7948 155.548 154.3864 153.9667 153.4627 152.8175 151.7913 150.4856 150.0321 149.9492 149.7484 149.5784 149.489 149.1449 148.6132 148.0021 147.6543 147.3019 147.1938 147.1225 146.7138 145.963 145.3018 144.8487 144.482 143.9908 143.5775 143.262 142.8823 142.0841 141.7618 141.4072 141.1629 141.0493
109.7453 110.0895 110.4566 110.5238 110.0895 109.7138 109.0403 108.6823 108.2762 108.0986 108.0757 108.1229 108.2119 108.3928 108.9867 109.296 109.9075 110.0051 110.0051 109.9075 109.4657 109.4267 109.4267 109.4267 109.4657 109.6711 109.833 110.252 110.6969 110.9747 111.0949 110.6422 110.4917 109.8475 109.5787 109.5787 109.5673 109.5669 109.5487 109.5673 109.5936 109.6296 109.7444 110.3082 110.6781 111.1405 111.2226 111.1405 111.0027 110.8679 109.7187 108.3874 107.3359 107.1401 106.9489 106.4687 106.075 105.8293 105.6014 105.4805 105.2605 105.1998 105.091 104.9407 104.8973 104.8792 104.851 104.823 104.6929 104.467 104.2507 104.2015 104.131 104.0001 103.9314 103.9143 103.9143 103.9143 103.9314 103.9535 103.9885 104.009 104.1029 104.1589 104.3011 104.4388 104.5142 104.5838 104.5838 104.5838 104.5485 104.3219 104.1335 103.93 103.812 103.796 103.7856 103.7765 103.7723 103.7723 103.7856 103.8204 103.8638 103.9708 104.1868 104.3724 104.5682 104.6431 104.6554 104.6747 104.6911 104.7193 104.7307 104.7724 104.7724 104.7781 104.8174 104.8477 104.9146 105.1591 105.311 105.6894 105.8241 105.949 106.06 106.1074 106.1074 105.986 105.9264 105.8439 105.6754 105.5951 105.4788 105.463 105.3457 105.3074 105.1766 105.1377 105.0822 105.0822 105.1766 105.3075 105.4029 105.5305 105.7419 105.9323 106.1463 106.1548 106.2083 106.2083 106.2091 106.2091 106.2083 106.1088 106.0532 106.0968 106.1625 106.2152 106.2322 106.2712 106.2818 106.2983 106.3161 106.3161 106.3348 106.3941 106.4269 106.5048 106.5172 106.5434 106.6382 106.6893 106.6893 106.6597 106.649 106.6134 106.6541 106.6838 106.7464 106.9982 107.3862 107.8371 108.2242 108.4567 108.7882 108.9594 109.3127 109.7585 110.0394 110.1868 110.2729 110.4725 110.6649 111.1432 111.3833 111.7515 112.0238 112.2074 112.7006 113.5027 113.989 114.5677 115.3839 116.0357 116.3735 116.9616 117.1681 117.4038 117.6253 117.9823 118.4624 118.8467 119.2549 119.6142 119.9884 120.4653 120.8499 121.2081 121.8551 122.7677 124.1308 125.5231 126.5817 127.2915 127.8651 128.3869 128.8288 129.264 129.6021 130.3494 131.4113 132.5305 133.3839 134.3805 135.3813 135.7988 136.5709 137.6367 139.0193 140.5983 142.6758 144.6277 146.6329 148.3849 149.3042 150.2698 151.2512 152.2462 152.8046 153.7112 154.7502 155.4936 156.2374 157.0607 158.1587 159.429 160.8326 162.2855 163.4751 164.2528 165.5972 166.332 167.2465 167.8385 168.6537 169.2083 169.9147 170.5898 170.8617 171.1243 171.3016 171.7512 173.2405 174.6216 174.9467 174.7074 174.1774 173.8421 173.2405 172.1634 171.4987 170.2063 170.0809 170.0028 170.0715 170.0809 169.9664 169.7803 169.4363 167.6623 166.5228 164.6046 163.224 162.5446 162.3226 162.2262 161.696 161.3944 160.193 159.0181 158.0748 156.6363 155.0903 154.3392 153.9667 153.4922 152.9179 151.9163 150.8527 150.02 149.7929 149.5335 149.2934 149.0923 148.4136 147.7896 147.4982 147.2951 147.2075 147.1512 147.0219 146.627 145.9531 145.6439 145.1382 144.6054 144.0206 143.5874 143.262 142.8292 142.0376 141.4891 141.2599 141.1537 140.9357
108.6825 108.9544 109.2706 109.4726 109.2706 108.9189 108.6823 108.3446 108.1473 108.0768 108.0757 108.1452 108.2576 108.6794 109.2811 110.0051 110.5062 110.5741 110.5736 110.4203 110.1631 109.9075 109.8184 109.6175 109.6175 109.6199 109.7337 109.8184 109.833 109.7337 109.7337 109.5787 109.1625 108.9683 108.9683 109.2507 109.4734 109.4997 109.5246 109.5673 109.6046 109.7007 109.8263 110.3082 110.6781 111.2226 111.3621 111.2727 111.2074 110.9714 109.7951 108.428 107.4539 107.2865 107.0368 106.8199 106.4687 106.075 105.791 105.5965 105.4805 105.2748 105.1998 105.0568 104.9182 104.8792 104.8487 104.823 104.6929 104.42 104.2414 104.1641 104.0174 103.8864 103.8707 103.8707 103.8794 103.8794 103.9119 104.0001 104.1055 104.1801 104.2164 104.2957 104.3923 104.4673 104.5306 104.6044 104.6062 104.6062 104.5838 104.4078 104.252 104.0459 103.93 103.854 103.8204 103.8062 103.7856 103.7698 103.7537 103.7159 103.7009 103.724 103.8638 104.1694 104.3271 104.5682 104.6378 104.6633 104.6911 104.7307 104.7724 104.7986 104.8252 104.8368 104.8448 104.8713 105.0299 105.1721 105.2287 105.6519 105.7727 105.9454 105.986 106.2097 106.215 106.215 106.2097 106.0618 105.9758 105.7514 105.7141 105.6189 105.5286 105.4686 105.3098 105.189 105.1766 105.1766 105.271 105.343 105.452 105.6098 105.8532 106.1612 106.4664 106.4279 106.3621 106.3091 106.2554 106.2554 106.2554 106.2554 106.2723 106.2266 106.2266 106.2342 106.2322 106.2322 106.2322 106.2322 106.2322 106.2322 106.3161 106.3965 106.5048 106.5166 106.5172 106.5243 106.6382 106.6893 106.6893 106.6597 106.6597 106.6838 106.6869 106.8198 107.1777 107.3942 107.8371 108.1899 108.3441 108.6686 108.8497 109.2757 109.7585 110.0607 110.1701 110.2558 110.343 110.4956 110.6649 111.0847 111.2474 111.4562 111.7861 112.0873 112.6151 113.3164 113.8104 114.1867 114.7683 115.6239 116.3735 116.9616 117.1681 117.4038 117.6253 117.9699 118.3232 118.8662 119.2601 119.5672 119.8 120.0128 120.4653 120.8285 121.3686 122.017 123.1395 124.6993 125.9619 126.8713 127.3913 127.8805 128.3869 128.8288 129.264 129.6021 130.3494 131.4113 132.5305 133.3839 134.2934 134.9708 135.7024 136.5709 137.7016 139.0579 140.6912 142.698 144.6897 146.6724 148.4007 149.3556 150.2698 151.1464 151.8442 152.4334 153.0192 153.7092 155.0505 155.764 157.1995 158.7691 160.5852 162.0559 163.3199 164.4439 165.5983 166.609 167.5927 168.031 168.831 169.7317 170.4921 170.8617 170.8932 171.1243 171.2569 171.6799 171.9545 173.3279 174.1774 174.1774 173.8698 173.6614 173.2405 172.1634 170.9579 170.0809 170.0028 169.9323 169.9136 169.9664 169.7803 169.512 168.6338 167.3301 166.8947 165.1726 163.7715 163.0899 162.4736 162.2887 161.7492 161.3968 160.193 159.0181 157.3137 156.0854 155.0458 154.3864 154.0429 153.7256 153.282 152.4475 150.9694 150.1298 149.9492 149.4949 149.0923 148.7548 147.7896 147.3019 147.2489 147.1698 147.1557 147.1041 147.01 146.6075 145.963 145.7591 145.3018 144.8487 144.1671 143.5874 143.2564 142.605 141.8971 141.4072 141.1945 140.9907 140.902
108.416 108.4637 108.5695 108.5838 108.5838 108.5695 108.3953 108.3446 108.2478 108.1473 108.2333 108.3105 108.561 109.0909 110.0051 110.6928 110.8317 110.9045 110.9045 110.5293 110.3515 110.1631 109.9478 109.8184 109.7105 109.6199 109.4657 109.423 109.2734 109.0248 108.7008 108.594 108.4886 108.3044 108.587 108.8929 109.2311 109.4734 109.4997 109.5669 109.5818 109.6296 109.7444 109.9932 110.4374 111.1126 111.3514 111.2226 111.0872 110.9306 110.2216 108.6437 107.5468 107.4104 107.1995 107.021 106.8138 106.3821 105.9233 105.6446 105.5766 105.4805 105.2748 105.1646 104.9933 104.8973 104.851 104.823 104.6201 104.3637 104.2414 104.0465 103.8794 103.8707 103.852 103.8794 103.9119 104.0001 104.0225 104.1029 104.2712 104.3259 104.3923 104.3923 104.4282 104.4527 104.5063 104.5838 104.6044 104.6044 104.5744 104.5063 104.3219 104.1784 104.0383 103.9425 103.8753 103.8204 103.8062 103.7723 103.7537 103.7159 103.7009 103.724 103.797 103.8963 104.1694 104.3724 104.5947 104.6633 104.6934 104.7724 104.8092 104.8256 104.8477 104.8529 104.9653 105.0122 105.0836 105.1591 105.1796 105.3105 105.6519 105.7829 105.986 106.2097 106.215 106.215 106.2102 106.1876 106.0618 105.9758 105.803 105.7402 105.647 105.5286 105.3698 105.271 105.189 105.2592 105.271 105.343 105.452 105.7892 106.1438 106.5155 106.564 106.5826 106.564 106.5286 106.5286 106.5225 106.4924 106.4279 106.3621 106.287 106.2865 106.2848 106.2818 106.2818 106.2818 106.3161 106.3577 106.3348 106.3652 106.5033 106.5166 106.5166 106.5166 106.5214 106.6597 106.7057 106.7776 106.9714 107.2332 107.2332 107.2977 107.3862 107.5051 107.9274 108.1899 108.3441 108.6215 108.8479 109.1547 109.491 110.0607 110.2045 110.2729 110.3574 110.4919 110.5586 110.7504 111.0536 111.1894 111.3833 111.6953 111.9088 112.3546 113.0246 113.5027 113.9228 114.4559 115.3839 116.2812 116.9222 117.0825 117.335 117.5646 117.7647 118.3232 118.8895 119.2601 119.5493 119.7031 119.8216 120.0128 120.4328 120.8545 121.5224 122.5056 123.8252 125.2362 126.3085 126.9559 127.4209 127.9023 128.3869 128.8941 129.3824 129.6985 130.5552 131.6398 132.8076 133.7332 134.3805 135.1052 135.7024 136.5819 137.7445 139.0928 140.6912 142.7549 144.8308 146.9093 148.6899 149.5724 150.3395 151.0195 151.644 152.4334 153.0192 153.6954 154.4514 155.7575 157.1995 159.1133 160.8176 162.5512 164.1387 165.5972 166.6933 167.595 168.5701 169.3492 169.9147 170.7573 171.1243 171.2736 171.2569 171.1243 171.3016 171.7204 172.3683 173.6614 173.8421 173.6614 173.5014 173.2405 172.312 170.9579 170.0385 169.9323 169.8114 169.7558 169.7539 169.512 169.395 168.1254 167.2068 166.8947 166.2998 164.3811 163.2593 162.5446 162.302 161.7492 161.4818 160.355 159.1394 157.1464 155.8226 155.0554 154.634 154.2176 153.7713 153.403 152.5981 151.0317 150.2928 149.7548 149.1449 148.7804 148.0021 147.2536 147.1938 147.1225 147.0814 147.0814 147.0774 146.9771 146.6075 145.963 145.7675 145.3549 144.974 144.482 143.8318 143.2564 142.5621 141.7618 141.2691 141.1537 140.9357 140.8304
108.1328 108.1328 108.2832 108.2947 108.3564 108.3689 108.3564 108.3105 108.2762 108.2478 108.3564 108.561 108.9937 109.8821 110.6667 110.8317 110.918 110.918 110.918 110.5741 110.4203 110.2267 109.9075 109.7288 109.6199 109.4267 109.3158 109.1769 108.7804 108.587 108.5049 108.4109 108.2243 108.1421 108.185 108.4323 108.8667 109.2311 109.4732 109.5487 109.5769 109.6279 109.7234 109.8263 110.0542 110.5972 111.1126 111.0027 110.9306 110.877 110.3604 109.1427 107.7673 107.4784 107.3281 107.1784 106.9575 106.6585 106.1723 105.8242 105.6391 105.5441 105.4566 105.2048 105.0568 104.8973 104.8433 104.7109 104.5426 104.2507 104.0403 103.8864 103.852 103.852 103.8707 103.9809 104.0225 104.1007 104.1801 104.2755 104.4125 104.4329 104.4527 104.4329 104.4329 104.4329 104.4527 104.5142 104.5744 104.5744 104.5349 104.3939 104.3219 104.2081 104.0487 103.9519 103.925 103.8708 103.8204 103.8042 103.7537 103.7159 103.7009 103.724 103.797 103.8963 104.0916 104.2831 104.4641 104.6514 104.6911 104.7928 104.8256 104.8448 104.8654 104.9778 105.0436 105.0849 105.105 105.1591 105.1737 105.2118 105.3277 105.6519 105.9454 106.2097 106.215 106.215 106.2102 106.1876 106.0618 105.9758 105.8439 105.7434 105.6582 105.5619 105.3784 105.271 105.189 105.2592 105.271 105.343 105.6098 105.9668 106.4063 106.5225 106.5826 106.6224 106.678 106.678 106.7293 106.7293 106.6879 106.6723 106.5633 106.4244 106.3882 106.3617 106.3161 106.3161 106.3609 106.5004 106.5241 106.5004 106.5241 106.5466 106.6893 106.6893 106.6597 106.6956 106.7754 106.8539 107.2414 107.4292 107.8822 108.0775 108.0927 108.1732 108.1732 108.239 108.4189 108.5608 108.8425 108.9658 109.4371 109.8625 110.1701 110.2699 110.3574 110.4202 110.5385 110.6916 110.9089 111.1432 111.2474 111.3833 111.5453 111.7861 112.3361 113.0031 113.3578 113.5894 114.0292 114.6453 115.5294 116.6581 117.0393 117.2321 117.4423 117.7647 118.3232 118.8895 119.2867 119.4558 119.6142 119.7195 119.8574 120.0248 120.4653 120.8591 121.7074 123.1395 124.778 125.9787 126.5849 127.0768 127.4766 128.0017 128.4845 128.8974 129.4844 129.9775 130.6053 131.7825 132.912 133.8636 134.5911 135.1052 135.7024 136.7114 137.9385 139.205 140.9251 143.1528 145.4725 147.6044 148.9021 149.9464 150.4285 151.0999 151.6469 152.4334 153.2621 153.6954 154.5697 155.7575 157.1995 159.2417 161.0983 162.9661 164.8887 166.332 167.595 168.831 169.7317 170.4921 171.0298 171.427 171.4737 171.4737 171.3016 171.5051 171.7204 171.8902 173.2405 173.5054 173.5014 173.3279 173.3107 172.5332 170.9927 170.0385 169.9323 169.8114 169.7539 169.515 169.4363 169.0836 167.6623 167.1915 166.8408 166.0924 165.1458 163.6671 163.0328 162.4986 161.7529 161.4818 160.6584 159.4372 157.0242 155.8807 155.2678 154.7645 154.3392 154.0018 153.4922 152.5981 151.0317 150.02 149.4949 148.9637 148.1617 147.2536 147.1039 147.0543 147.01 146.9842 146.9842 146.97 146.7147 146.3146 145.9531 145.6989 145.3018 144.8886 144.4317 143.9278 143.2564 142.5621 141.7618 141.2691 141.1537 140.9125 140.82
107.7793 107.7594 107.8107 108.0189 108.2192 108.2832 108.2947 108.3047 108.2947 108.3564 108.4016 108.9937 109.5989 110.5043 110.7851 110.9111 110.9838 110.918 110.9111 110.5293 110.3515 110.1631 109.833 109.7105 109.4267 109.3071 109.0981 108.7008 108.5746 108.5047 108.4079 108.2205 108.1267 108.1137 108.1267 108.185 108.4614 108.8929 109.271 109.5487 109.5818 109.6296 109.7191 109.7191 109.8589 110.3082 110.8083 110.877 110.8527 110.8117 110.5885 109.6802 108.3577 107.5902 107.4106 107.2649 107.0788 106.8565 106.4436 106.0813 105.7831 105.6344 105.5114 105.3598 105.2023 104.9182 104.823 104.5669 104.2507 104.0403 103.931 103.8864 103.8689 103.9119 103.9809 104.0314 104.2139 104.2755 104.3018 104.3606 104.4155 104.4329 104.4527 104.4155 104.3924 104.3259 104.3259 104.3259 104.4087 104.4087 104.3939 104.3579 104.252 104.1335 104.0132 103.9327 103.925 103.905 103.8708 103.854 103.8062 103.7765 103.7159 103.7765 103.8643 103.9999 104.2193 104.3483 104.4568 104.6335 104.6853 104.8092 104.8416 104.8607 104.9232 105.0185 105.151 105.151 105.151 105.1591 105.1721 105.1721 105.1737 105.394 105.6287 105.834 106.0078 106.2097 106.2097 106.1876 106.0618 105.9758 105.754 105.7402 105.647 105.5619 105.3784 105.2253 105.1377 105.1766 105.2649 105.3521 105.6742 106.1796 106.4967 106.6224 106.6883 106.7519 106.7993 106.8139 106.8155 106.8155 106.7993 106.7871 106.6729 106.5633 106.4924 106.4194 106.3609 106.3609 106.4858 106.5914 106.6575 106.6864 106.6864 106.7057 106.7754 106.7693 106.7693 106.7926 106.9714 107.2977 107.7485 108.1979 108.365 108.4148 108.4189 108.4189 108.4189 108.4189 108.55 108.6535 108.9594 109.3232 109.6051 109.8738 110.1868 110.3208 110.3871 110.4821 110.6288 110.9089 111.1073 111.2321 111.3036 111.4406 111.5559 111.7683 112.3361 112.9026 113.2768 113.5414 113.8176 114.2042 115.2934 116.3348 116.9238 117.1783 117.4423 117.7647 118.2502 118.8895 119.2867 119.4373 119.5625 119.6858 119.8 119.9904 120.1469 120.5644 121.158 122.5056 124.1308 125.4538 126.3148 126.7122 127.1218 127.5622 128.0295 128.8288 129.264 129.6559 130.1713 131.2583 132.4534 133.3007 133.9787 134.617 135.3578 135.9755 136.9425 138.1922 139.6493 141.6816 144.0699 146.5772 148.0838 149.2874 150.0569 150.6246 151.1955 152.0259 152.6459 153.3301 153.7092 154.5697 155.4272 157.1995 159.5731 161.9173 163.3199 165.8896 167.4827 168.831 169.8278 170.7573 171.427 171.5051 171.617 171.57 171.507 171.6356 171.7428 171.9548 173.2405 173.5014 173.4702 173.3888 173.3432 172.5875 171.5908 170.8269 170.0385 169.9323 169.7539 169.512 169.395 169.0644 167.6623 167.0506 166.8244 166.0924 165.1726 164.168 163.2677 162.7038 162.1183 161.5777 161.0061 159.4372 157.0242 156.4199 155.7503 155.0554 154.6258 154.0707 153.5914 152.4521 150.9264 149.5784 149.0433 148.2538 147.291 146.9842 146.9606 146.9771 146.9606 146.8338 146.7489 146.627 146.457 146.106 145.8736 145.6316 145.2568 144.752 144.3969 143.8858 143.3279 142.5621 141.7618 141.2777 141.1629 140.9125 140.8017
107.7065 107.5709 107.6775 107.7065 107.8821 108.0768 108.2832 108.3689 108.4016 108.4562 109.0909 109.5989 110.5043 110.779 110.8567 110.9838 110.9838 110.9111 110.8567 110.4795 110.2267 109.9658 109.8184 109.6714 109.1769 108.8819 108.594 108.5389 108.4886 108.3622 108.1421 108.1129 108.0086 108.0886 108.112 108.1267 108.3044 108.822 109.271 109.5421 109.5936 109.7191 109.7234 109.6247 109.7191 109.9932 110.3896 110.6781 110.8083 110.8083 110.5885 110.1411 108.8271 107.7673 107.4539 107.3359 107.1034 107.0171 106.829 106.3884 105.9233 105.7144 105.6014 105.4805 105.2457 104.9611 104.6035 104.3119 104.108 104.0403 103.9839 103.9809 103.9809 104.0001 104.0266 104.1389 104.2755 104.2831 104.3018 104.3606 104.4125 104.4155 104.4155 104.3259 104.1802 104.1433 104.1322 104.1271 104.1271 104.2858 104.3064 104.252 104.1736 104.0643 103.9846 103.9327 103.9326 103.9251 103.9251 103.9251 103.9251 103.9096 103.8693 103.8693 103.9894 104.0916 104.2362 104.3705 104.4568 104.6335 104.6853 104.8092 104.8495 104.8936 104.9778 105.1444 105.151 105.151 105.1501 105.1501 105.1127 105.0876 105.0742 105.1737 105.3941 105.625 105.6923 105.7295 105.834 105.9758 105.8746 105.834 105.7402 105.6291 105.5619 105.5111 105.2918 105.1368 105.0501 105.1216 105.2649 105.3698 105.7395 106.3989 106.6718 106.7422 106.8307 106.8644 107.014 107.0257 107.014 107.0035 106.8425 106.8181 106.7871 106.6092 106.5202 106.4194 106.3609 106.3609 106.5202 106.712 106.9118 106.9628 107.0105 106.9628 106.9314 106.881 106.881 107.2414 107.4773 107.9751 108.4148 108.4869 108.5481 108.5345 108.5481 108.5481 108.5481 108.55 108.581 108.8672 109.1788 109.4541 109.6051 109.8625 110.1868 110.3208 110.4202 110.5387 110.6916 111.1073 111.2808 111.3142 111.3833 111.4711 111.6978 112.0873 112.7498 113.0031 113.25 113.41 113.617 114.0692 114.7683 115.8649 116.6581 117.0448 117.4091 117.6995 118.235 118.8895 119.3345 119.4558 119.5625 119.6692 119.7286 119.8707 120.013 120.4323 120.8285 121.9613 123.5853 124.9044 125.9787 126.5817 126.8713 127.3913 127.9735 128.5122 129.057 129.564 130.0533 130.6613 131.7825 132.9126 133.7332 134.0281 134.6745 135.3908 136.4309 137.4572 138.6276 140.4281 142.7549 144.8308 146.9093 148.708 149.3556 150.6246 151.1955 152.0259 152.4236 152.9354 153.4384 153.9747 154.6835 155.7575 157.1995 159.5731 162.0559 164.7786 166.9617 168.5701 169.7317 171.1243 171.507 171.7284 171.7895 171.7895 171.7895 171.7895 171.8589 172.7059 173.6206 173.6091 173.5014 173.3888 173.3279 172.764 172.0587 171.2044 170.8269 170.1083 169.9664 169.7539 169.4363 169.0644 167.6623 167.1915 166.8244 166.0924 165.5226 164.8034 163.8469 163.224 162.5675 161.6002 161.0061 159.4372 157.0242 156.6424 155.8673 155.5467 154.7433 154.2176 153.7031 152.4475 150.6492 149.1389 148.7548 147.3292 146.8338 146.5017 146.5017 146.5017 146.5158 146.5158 146.457 146.2857 146.106 145.8776 145.6989 145.404 145.015 144.4915 144.1689 143.8318 143.3579 142.8292 141.869 141.2777 141.1537 140.8437 140.7478
107.4284 107.3627 107.3634 107.4284 107.7793 108.0189 108.3047 108.4248 108.5695 109.1811 109.9076 110.6667 110.8317 110.9111 110.9838 110.9838 110.9111 110.8317 110.5293 110.2267 109.7105 109.6714 109.3632 109.017 108.6974 108.542 108.4109 108.4033 108.3391 108.3181 108.1421 108.1129 108.0086 108.1137 108.1267 108.185 108.3551 108.8225 109.3077 109.5683 109.7259 109.8031 109.9937 109.7334 109.7191 109.8589 110.1985 110.533 110.6069 110.7659 110.6069 110.2816 109.192 108.238 107.6239 107.4106 107.1784 107.0171 106.8565 106.7006 106.2833 105.8242 105.6531 105.5222 105.3598 104.851 104.4607 104.2919 104.0797 104.0762 104.108 104.1413 104.1389 104.108 104.108 104.1838 104.2755 104.2755 104.2755 104.2776 104.295 104.3062 104.2776 104.1619 104.0546 103.9612 103.8992 103.8468 103.8468 103.9011 104.0487 104.1189 104.0487 103.9813 103.9425 103.9425 103.9485 103.9519 103.9563 103.9846 103.9875 103.9894 104.0024 104.0382 104.0916 104.2193 104.2831 104.3705 104.4641 104.6335 104.6813 104.7986 104.8341 104.8654 104.9232 105.1444 105.151 105.1501 105.1127 105.105 105.0122 104.9349 104.8999 104.9349 105.2648 105.4559 105.625 105.6909 105.7115 105.8087 105.8713 105.8647 105.7434 105.6189 105.5619 105.5111 105.2918 105.1368 105.0501 105.1216 105.2649 105.5876 105.9668 106.4967 106.7018 106.7964 107.014 107.1054 107.2093 107.2506 107.2506 107.2506 107.0339 107.0257 106.8139 106.6723 106.5202 106.4244 106.3882 106.4194 106.564 106.9314 107.0553 107.151 107.2629 107.2629 107.2414 107.2414 107.3631 107.6426 108.0775 108.4869 108.7384 108.7472 108.7384 108.615 108.5851 108.5851 108.5851 108.6535 108.7591 108.973 109.2757 109.4371 109.5338 109.7268 110.1219 110.3602 110.5385 110.674 110.9808 111.2504 111.4817 111.5453 111.5559 111.6978 111.7715 112.3498 113.0031 113.2231 113.3486 113.5414 113.617 114.0292 114.3715 115.3882 116.1911 116.7166 117.1783 117.5087 118.028 118.629 119.2867 119.4558 119.493 119.5756 119.7065 119.7426 119.8707 120.0457 120.8126 121.7279 123.0504 124.3971 125.475 126.3148 126.7122 127.1218 127.5891 128.3742 129.057 129.564 129.9804 130.423 131.4113 132.4909 133.3385 133.9771 134.5533 134.8099 135.7024 136.5197 137.6422 139.0193 140.9251 143.1528 145.6575 147.8769 149.3556 150.6246 151.1955 152.0259 152.2465 152.6459 153.2621 153.6954 154.2559 155.1664 155.9879 157.4143 159.6765 162.3966 165.221 167.4827 169.0996 171.0544 171.6356 171.79 171.8882 171.8931 171.9439 171.9548 172.8451 173.6206 173.8522 173.8518 173.6614 173.5054 173.3432 172.764 172.14 171.335 170.9938 170.8269 170.6742 169.9664 169.515 169.0836 167.9122 167.2068 166.8244 166.3118 165.7194 165.4366 164.5478 163.6478 162.7038 161.7288 161.0539 159.4372 157.4713 156.7959 156.3833 155.7666 155.0554 154.3136 153.7713 152.4021 150.1086 149.0433 148.0208 146.9685 146.1397 145.7737 145.7302 145.7302 145.7501 145.9928 146.106 145.9928 145.8736 145.7286 145.4496 145.2568 144.8886 144.4317 144.0438 143.7283 143.2564 142.8063 141.869 141.2777 140.9462 140.7559 140.6854
107.1399 107.1399 107.2204 107.2719 107.7793 108.0189 108.3953 108.7558 109.2141 110.0076 110.7006 111.0615 111.1137 111.1076 111.0394 110.9838 110.8317 110.5736 110.1946 109.5114 109.219 108.8819 108.6113 108.2733 107.9492 107.8616 107.9541 108.1421 108.3181 108.3181 108.275 108.275 108.275 108.275 108.3231 108.3551 108.6488 109.0438 109.4002 109.7259 109.9937 110.284 110.3422 110.0542 109.815 109.8589 110.1985 110.5314 110.5727 110.7181 110.7181 110.4502 109.7707 108.7488 107.8868 107.5468 107.3519 107.0171 106.8565 106.7413 106.4877 106.1226 105.7986 105.5992 105.2622 104.8433 104.4607 104.3284 104.2228 104.2228 104.3116 104.3119 104.3116 104.3116 104.2823 104.2755 104.2831 104.2823 104.2755 104.2755 104.2776 104.2555 104.1802 104.0923 103.9612 103.8468 103.8136 103.7255 103.6834 103.6542 103.6713 103.7895 103.7895 103.9011 103.925 103.9327 103.9813 103.9852 104.0024 104.0131 104.0272 104.0715 104.1114 104.1486 104.2165 104.223 104.2825 104.3557 104.4641 104.5962 104.6813 104.8055 104.8304 104.8387 104.8777 104.9232 105.0187 105.0122 104.9429 104.8301 104.6899 104.6395 104.6512 104.7205 104.943 105.2955 105.5754 105.6287 105.6923 105.7295 105.8713 105.8746 105.7514 105.6189 105.5619 105.5111 105.3072 105.1368 105.0501 105.1216 105.3562 105.923 106.3989 106.678 106.7422 107.0278 107.2613 107.2715 107.2933 107.6448 107.691 107.8221 107.6448 107.3012 107.0267 106.6729 106.548 106.5202 106.5004 106.5409 106.714 107.0657 107.3314 107.5908 107.6936 107.8646 107.8935 107.8935 107.9282 108.1419 108.4869 108.7868 108.8487 108.8487 108.7961 108.782 108.7591 108.7591 108.7961 108.8672 108.973 109.1788 109.3193 109.4371 109.533 109.6092 109.8625 110.2699 110.5623 110.8066 111.2232 111.4421 111.5559 111.6038 111.7269 111.7715 112.2054 112.8919 113.2768 113.3631 113.5041 113.617 113.8996 114.0692 114.267 115.19 115.6965 116.3801 116.8992 117.3414 117.6848 118.0869 118.9685 119.2867 119.3942 119.4558 119.5756 119.6858 119.7065 119.9904 120.7249 121.7074 122.5966 123.8954 125.2362 126.021 126.5849 126.8713 127.4841 128.2528 129.0515 129.5448 129.9413 130.2005 130.939 131.9978 133.2523 133.8481 134.0481 134.6745 135.4466 136.2422 136.9425 138.1922 139.6493 141.9391 144.5153 146.9093 148.9277 150.4285 151.1837 152.0259 152.2465 152.613 153.0969 153.6949 154.2016 154.9594 155.7869 157.1558 158.0838 160.0336 162.57 165.3621 168.5011 170.4502 171.4484 171.7923 171.9439 172.1767 172.8451 173.4465 173.8518 174.225 174.225 174.1825 173.934 173.6614 173.4702 173.0832 172.312 171.5908 171.1772 170.9938 170.8287 170.6742 169.9418 169.395 168.1676 167.3218 166.8244 166.3467 165.8702 165.5226 164.8034 164.0966 162.9699 161.782 161.1795 159.9267 157.7888 156.8503 156.6424 156.0863 155.6503 154.7707 153.9646 152.4021 150.1086 148.9637 147.4348 146.23 145.7737 145.2784 145.1892 145.0807 145.0004 145.136 145.6291 145.7286 145.5931 145.2935 145.2256 144.8886 144.4915 144.1689 143.8318 143.5055 143.1164 142.6074 141.869 141.2671 140.8962 140.7559 140.6854
106.9818 107.0133 107.0509 107.2204 107.6491 108.3689 108.6575 109.5826 110.2172 111.1076 111.3556 111.5011 111.3556 111.1556 111.1137 110.9838 110.6667 110.2512 109.5986 108.9615 108.8387 108.3277 108.0004 107.6842 107.4058 107.5798 107.7923 107.9541 108.2701 108.3391 108.3622 108.3985 108.4033 108.4597 108.4657 108.6254 109.0352 109.3077 109.5683 109.8077 110.3422 110.461 110.5274 110.4788 110.0542 109.9042 110.1985 110.3896 110.5727 110.7181 110.7659 110.7181 110.2816 109.0496 108.238 107.6713 107.3856 107.0171 106.8565 106.7006 106.4055 106.251 106.0349 105.6344 105.3124 104.8979 104.6161 104.4135 104.3462 104.3462 104.4043 104.4048 104.4048 104.3845 104.3606 104.3301 104.3333 104.3184 104.2831 104.2776 104.2755 104.2295 104.1798 104.1322 103.9696 103.8455 103.7324 103.6834 103.6145 103.6107 103.5953 103.6107 103.63 103.6962 103.8348 103.9096 103.9485 104.0024 104.0272 104.0715 104.1402 104.2103 104.2165 104.2165 104.2175 104.223 104.2646 104.3509 104.4428 104.5315 104.6813 104.7506 104.8304 104.835 104.8529 104.8654 104.8981 104.8304 104.8232 104.6899 104.6155 104.5814 104.5902 104.6356 104.8746 105.1437 105.3941 105.5943 105.6923 105.7295 105.8713 105.8984 105.8746 105.6582 105.6101 105.5619 105.5111 105.2918 105.2772 105.481 105.923 106.2851 106.7018 106.7422 107.2766 107.4756 107.6448 107.691 107.8567 108.2344 108.2965 108.3781 108.2721 107.8221 107.4385 106.8379 106.7121 106.6729 106.6723 106.714 106.9727 107.3573 107.6023 107.8646 107.9751 108.0224 108.0224 108.0445 108.1419 108.4211 108.7874 108.8771 108.9141 108.9141 108.8893 108.8504 108.7961 108.8745 108.9822 109.1648 109.283 109.2988 109.3298 109.4296 109.4541 109.4371 109.6363 109.9176 110.5221 110.9808 111.2504 111.4882 111.6038 111.7705 111.8205 112.1188 112.7498 113.2796 113.3798 113.541 113.5894 113.848 114.0692 114.1227 114.3715 115.1033 115.3961 116.0794 116.5496 116.9238 117.3694 117.7542 118.4164 118.9685 119.0396 119.2867 119.4373 119.6692 119.7065 119.9904 120.7249 121.1372 122.1991 123.5591 124.7488 125.6547 126.3148 126.7122 127.2185 128.1648 129.0097 129.5448 129.8844 130.062 130.6152 131.4652 132.4521 133.2882 133.9771 134.5533 135.0583 135.7262 136.4604 137.4572 138.7846 140.9193 143.1528 145.6575 148.204 149.9464 151.0999 152.0259 152.2465 152.613 153.0665 153.5861 154.1537 154.9135 155.6982 156.8897 157.9354 159.5831 162.2664 165.2026 167.4827 169.3857 171.2032 171.79 172.1767 173.256 173.8518 175.2051 176.0709 176.3645 176.009 175.6662 174.3234 173.934 173.6091 173.1232 172.4581 171.591 171.2587 171.0503 170.9835 170.8269 170.6053 169.8908 168.8448 167.4648 166.8244 166.4081 165.9536 165.618 165.1566 164.5459 163.4757 162.1183 161.5534 160.2885 158.3227 156.9412 156.7701 156.5163 156.0863 155.6503 154.3136 152.6316 150.6492 149.1103 147.291 146.0915 145.4206 145.1892 145.0004 144.8178 144.7302 144.5259 144.9565 145.1869 145.1183 144.9797 144.6978 144.4915 144.3612 143.8858 143.5883 143.3279 142.988 142.6074 141.869 141.2671 140.9252 140.8298 140.7543
106.7555 106.8492 107.045 107.2204 107.8107 108.4562 109.2141 110.1941 111.1209 111.7764 112.0582 111.8152 111.7294 111.3556 111.1174 110.9838 110.6108 109.8898 109.219 108.8387 108.2733 108.0004 107.5951 107.2013 107.1686 107.3189 107.6083 107.9447 108.2701 108.3985 108.4079 108.4657 108.5382 108.632 108.6736 109.0352 109.2469 109.3542 109.6549 110.0542 110.4263 110.6005 110.9188 110.9188 110.533 110.2809 110.284 110.3896 110.5727 110.7181 110.8083 110.8083 110.7181 109.192 108.4077 107.7148 107.3519 106.9185 106.829 106.6087 106.3891 106.2027 106.1358 106.0849 105.5992 105.2495 104.7879 104.6161 104.4607 104.6045 104.6501 104.6305 104.5591 104.5072 104.4823 104.4149 104.4243 104.3333 104.2899 104.2776 104.2295 104.2259 104.1798 104.137 104.0333 103.8948 103.7324 103.6217 103.5953 103.5753 103.5231 103.5143 103.5753 103.6145 103.6713 103.8348 103.925 103.9852 104.0715 104.1652 104.2175 104.2181 104.2181 104.2181 104.2181 104.2193 104.2407 104.3133 104.4305 104.5179 104.6567 104.7506 104.8341 104.8387 104.8777 104.8783 104.8783 104.8304 104.8232 104.67 104.6155 104.5814 104.5902 104.623 104.8746 105.1437 105.4559 105.6069 105.6931 105.8087 105.94 106.0464 106.0464 106.0464 105.8984 105.8984 105.8984 105.8984 106.007 106.4113 106.928 107.1518 107.6213 107.9982 108.0184 108.0184 108.2965 108.3781 108.6451 108.8004 109.2218 108.8559 108.6745 108.4291 107.8221 107.0889 106.8181 106.8181 106.8181 106.8397 107.1234 107.5973 107.6994 107.9282 108.0224 108.1337 108.1419 108.2896 108.4869 108.8141 108.8979 109 109.0003 109 108.9141 108.8968 108.8893 108.9752 109.1648 109.2912 109.3193 109.3193 109.3193 109.3193 109.2869 109.1843 109.2102 109.7156 110.1219 110.7302 111.341 111.5559 111.7705 111.8516 111.9976 112.42 112.9172 113.3717 113.541 113.6045 113.657 113.9853 114.1227 114.1909 114.56 115.0045 115.3495 115.6965 116.2631 116.6152 116.9881 117.4983 117.9391 118.57 118.9142 119.1053 119.4106 119.5756 119.7065 119.9904 120.7249 121.1294 121.9613 123.2798 124.3971 125.1339 125.9602 126.4384 127.1218 128.0017 128.8607 129.4975 129.8101 129.9413 130.1919 130.7478 131.7709 132.9126 133.6806 134.0481 134.6745 135.4639 136.1673 136.906 138.0704 140.037 142.8536 145.4725 147.6044 149.6028 151.0999 152.0259 152.2465 152.5762 153.0665 153.4269 154.1143 154.6835 155.6982 156.8897 157.4654 158.5049 159.9747 162.57 165.3621 168.5848 171.0764 172.0124 173.0224 173.8518 175.7288 176.4744 177.4556 177.773 177.773 177.2418 175.8283 174.5044 173.7877 173.3107 172.5098 171.591 171.335 171.1846 171.0311 170.9091 170.8238 170.227 169.0836 168.2526 167.4164 166.6465 166.2536 165.7194 165.5154 164.8034 163.8085 162.9699 161.7288 161.0539 159.2572 157.602 156.8636 156.6613 156.4032 156.0394 154.7707 153.4135 151.7125 149.1828 147.291 146.1397 145.4206 145.1884 144.8178 144.6989 144.5067 144.4614 144.5081 144.6643 144.5962 144.5081 144.3969 144.3483 144.0438 143.8038 143.5883 143.341 143.1164 142.7345 142.1172 141.3535 141.1537 140.899 140.8017
106.6419 106.7555 106.9818 107.2543 107.9112 109.0173 110.0076 111.1209 111.9465 112.3108 112.3819 112.2404 111.8339 111.7294 111.3556 111.1164 110.5167 109.8051 108.9615 108.3277 108.0421 107.5951 107.2013 107.1673 107.0546 107.2013 107.4058 107.8616 108.3181 108.4657 108.632 108.7935 108.9482 109.0273 109.0445 109.2054 109.3064 109.4002 109.6549 110.1428 110.6005 111.0825 111.1577 111.1577 111.1082 110.6005 110.7181 110.7659 110.8083 110.879 110.8997 110.8997 110.879 109.8367 108.5644 107.7148 107.0428 106.8531 106.7064 106.5497 106.4312 106.3753 106.251 106.1471 106.0849 105.6373 105.359 105.2495 105.1953 105.1953 105.1953 104.9819 104.8058 104.7007 104.6415 104.5591 104.523 104.3836 104.295 104.2776 104.2264 104.2007 104.1798 104.145 104.0546 103.9366 103.7535 103.6217 103.4997 103.493 103.4855 103.4846 103.488 103.5231 103.6002 103.6713 103.8561 103.9557 104.0715 104.1652 104.2175 104.2175 104.2165 104.2165 104.2103 104.2103 104.2165 104.2872 104.3753 104.5179 104.6862 104.7687 104.8777 104.9006 104.9232 104.9232 104.9006 104.8459 104.8301 104.7418 104.6624 104.623 104.6395 104.7282 104.9204 105.2515 105.5648 105.6923 105.8576 106.0467 106.2709 106.3776 106.4575 106.5068 106.509 106.509 106.509 106.5127 107.0537 107.2489 108.0184 108.2025 108.6687 108.8004 108.9337 109.0549 109.0381 109.3483 109.3867 109.7239 109.5933 109.4966 109.2525 108.7732 108.2721 107.4385 106.8379 106.8379 106.8379 106.9624 107.2238 107.6511 107.8159 107.9751 108.1337 108.2605 108.3037 108.5011 108.8141 109.0981 109.0981 109.0792 109.0792 109.0291 109 108.9752 108.9752 109.1123 109.2668 109.3193 109.3193 109.2869 109.283 109.28 109.1833 109.1088 109.1091 109.5896 109.7401 110.5609 111.2491 111.5559 111.7715 111.9976 112.2915 112.4976 112.9634 113.3717 113.541 113.7616 113.8996 114.0692 114.1769 114.3047 114.56 114.9231 115.1997 115.6576 116.022 116.3901 116.7166 117.0786 117.5087 118.0609 118.6926 118.9853 119.3962 119.4982 119.7574 120.0332 120.724 121.1294 121.9613 122.8091 124.0116 124.7913 125.5071 126.1482 126.7391 127.5891 128.5416 129.317 129.6737 129.8844 130.0766 130.6494 131.4652 132.4441 133.2661 133.9357 134.5533 135.4466 136.0755 136.5097 137.6227 139.5784 141.6816 144.0699 146.5772 148.9277 150.7443 152.0259 152.2465 152.5762 153.0665 153.4269 154.2019 154.7404 155.6982 156.8897 157.9261 158.4026 159.7371 162.2664 165.2026 168.2508 171.0544 172.5056 173.4863 175.2051 176.3645 177.4556 177.8573 178.209 178.3511 178.1086 177.656 175.8283 174.3234 173.3432 172.14 171.5436 171.335 171.2044 171.0393 170.9943 170.9785 170.605 169.8908 168.9699 168.2526 167.4164 166.7625 166.3118 165.944 165.5154 164.7458 163.7279 162.4525 161.5534 159.4256 158.0742 157.0852 156.7959 156.5761 156.2486 155.3028 153.9065 151.8945 149.7983 147.8108 146.9683 145.7737 145.2672 144.9065 144.6989 144.5067 144.4614 144.5081 144.6643 144.5962 144.5259 144.4408 144.3483 144.0438 143.8038 143.7027 143.4182 143.1207 142.8063 142.2329 141.6764 141.3186 141.1438 140.8465
106.6049 106.736 107.045 107.5959 108.3128 109.4157 110.8818 111.8969 112.3315 112.5055 112.5055 112.5055 112.2274 111.8152 111.5364 111.302 110.5167 109.8051 108.9615 108.2753 107.8933 107.5875 107.2013 107.1673 107.0546 107.2013 107.5945 107.9541 108.4629 108.9482 109.3406 109.8404 109.6549 109.3064 109.2638 109.2654 109.3094 109.4017 109.6549 110.1428 110.9271 111.3724 111.5008 111.541 111.5567 111.3552 110.9188 110.9188 111.028 111.1214 111.1573 111.1303 111.0355 110.4502 108.5644 107.7148 106.963 106.7438 106.5939 106.5447 106.4691 106.4055 106.3753 106.2027 106.1358 105.9497 105.6305 105.359 105.3124 105.2495 105.2371 105.2202 105.1953 104.9967 104.9819 104.948 104.7517 104.6415 104.3727 104.2899 104.2776 104.2295 104.2259 104.1798 104.1276 104.0165 103.8455 103.5753 103.4949 103.4633 103.4351 103.4242 103.4351 103.4843 103.4932 103.5716 103.7195 103.9525 104.0272 104.1652 104.2165 104.2165 104.2054 104.1486 104.0978 104.0674 104.0933 104.163 104.2872 104.5117 104.6986 104.775 104.8777 104.9642 105.0187 105.0187 104.9006 104.8783 104.8459 104.8266 104.7418 104.7282 104.7418 104.9012 105.1437 105.324 105.6923 105.94 106.2663 106.4995 106.5691 106.6425 106.6714 106.8 106.8878 106.928 107.0537 107.2489 107.6445 108.035 108.6687 108.9337 109.1625 109.4118 109.5205 109.5896 109.7239 109.8976 110.2683 110.2959 110.0551 109.7878 109.5933 109.4827 108.5013 107.8221 107.1338 107.0889 107.0889 107.1338 107.5973 107.6994 107.8584 108.1142 108.2658 108.3603 108.6051 108.802 109.144 109.2299 109.1912 109.1432 109.1123 109.0792 109.0111 109.0003 109.0111 109.1648 109.2729 109.3193 109.2869 109.28 109.2402 109.1833 109.0906 109.0539 109.1043 109.4061 109.7221 110.3902 110.9909 111.5071 111.7705 112.0939 112.42 112.6882 113.0367 113.3711 113.5309 113.7578 113.9001 114.1089 114.1909 114.341 114.56 114.9113 115.1431 115.3961 115.7728 116.1493 116.5373 116.8992 117.3025 117.7147 118.3268 118.8139 119.2819 119.493 119.7574 120.0332 120.724 121.1137 121.8091 122.6386 123.5591 124.7029 125.2901 126.1109 126.7243 127.4856 128.3452 129.0611 129.5495 129.8218 130.0533 130.6152 131.2952 132.2647 133.1865 133.8481 134.5533 135.4466 136.0755 136.5097 137.3196 138.6276 140.4281 143.1297 146.0838 148.4265 150.1847 151.6101 152.2465 152.5762 153.1656 153.7529 154.5298 155.0182 155.7869 157.0409 157.9354 158.4026 159.5391 161.8849 164.9705 167.8222 170.3415 172.5056 174.2886 175.7632 176.5031 177.4869 178.1128 178.3978 178.4124 178.4015 178.1394 177.656 175.7624 173.2796 171.7989 171.4539 171.2706 171.2338 171.0642 171.0311 170.9943 170.7072 170.1596 169.8901 169.0927 168.2526 167.6149 167.0507 166.492 166.2055 165.5226 164.5495 163.6478 161.7924 159.6723 158.6239 157.4713 156.9013 156.6613 156.3521 155.6312 153.9948 152.4335 150.7464 149.1389 147.5475 146.2929 145.6952 145.1892 144.8131 144.5962 144.5067 144.5259 144.6643 144.6643 144.5869 144.4915 144.4242 144.2675 143.8095 143.7283 143.5055 143.1689 142.984 142.5175 142.0615 141.6764 141.3186 141.1537
